<?xml version="1.0"?>
<opencv_storage>
<EmptySandboxInsideBox type_id="opencv-matrix">
  <rows>37</rows>
  <cols>512</cols>
  <dt>w</dt>
  <data>
    0 1364 1363 1357 1346 1344 1354 1360 1366 1364 0 0 0 0 0 0 0 0 0 0 1613 1612 1615 1633 1657 1657 1655 1622 1609 1627 1636 0 1640 1662 0 0 0 0 0 0 0 0 0 1013 1020 1005 1012 1004 1003 1001 1001 1002 1003 1002 1002 1001 1001 1000 1000 1001 1001 1001 1001 1001 1001 1002 1003 1004 1004 1003 1003 1002 1002 1003 1003 1003 1002 1003 1004 1004 1002 1002 1002 1004 1004 1004 1004 1005 1006 1005 1005 1004 1006 1006 1005 1005 1006 1007 1008 1007 1007 1006 1006 1007 1008 1008 1009 1022 1048 1087 1114 1129 1143 1150 1156 1161 1165 1168 1173 1177 1181 1183 1187 1189 1192 1192 1188 1186 1185 1186 1187 1190 1191 1191 1191 1193 1193 1194 1194 1194 1195 1195 1195 1195 1195 1196 1196 1197 1196 1196 1196 1196 1196 1195 1196 1194 1194 1195 1197 1196 1195 1194 1193 1194 1193 1194 1195 1194 1193 1193 1194 1193 1194 1192 1193 1191 1191 1191 1192 1191 1191 1193 1193 1193 1193 1192 1191 1189 1190 1189 1190 1189 1190 1190 1191 1191 1192 1190 1189 1190 1190 1191 1190 1190 1190 1190 1188 1188 1187 1188 1190 1190 1190 1189 1188 1188 1187 1187 1186 1188 1188 1189 1189 1189 1189 1188 1187 1187 1187 1189 1189 1189 1189 1189 1190 1191 1191 1190 1188 1188 1188 1188 1189 1190 1191 1190 1190 1189 1189 1189 1189 1188 1188 1189 1190 1189 1187 1188 1188 1189 1188 1189 1188 1188 1187 1189 1190 1190 1189 1188 1187 1187 1188 1189 1189 1189 1188 1189 1189 1190 1190 1189 1188 1187 1189 1190 1191 1190 1189 1188 1189 1189 1191 1190 1191 1190 1191 1190 1190 1190 1191 1191 1192 1192 1192 1191 1190 1190 1191 1192 1191 1191 1191 1192 1192 1192 1192 1192 1191 1191 1190 1191 1191 1192 1192 1191 1190 1190 1192 1193 1193 1194 1193 1193 1193 1193 1193 1192 1192 1193 1193 1193 1192 1192 1192 1193 1193 1193 1193 1193 1193 1194 1193 1193 1193 1194 1194 1195 1195 1194 1194 1194 1195 1194 1193 1194 1195 1195 1195 1196 1196 1196 1195 1195 1196 1196 1197 1197 1196 1196 1195 1197 1196 1198 1199 1200 1198 1197 1196 1197 1198 1198 1197 1196 1197 1199 1200 1201 1200 1200 1200 1202 1201 1201 1200 1200 1201 1201 1202 1202 1204 1204 1203 1202 1202 1203 1204 1205 1207 1207 1207 1207 1208 1207 1208 1209 1209 1208 1207 1207 1207 1206 1206 1208 1209 1208 1207 1207 1208 1208 1208 1207 1207 1207 1207 1206 1206 1205 1204 1204 1205 1206 1209 1212 1213 1213 1210 1209 1207 1204 1200 1196 1195 1193 1190 1187 1184 1181 1178 1175 1171 1168 1163 1159 1156 1153 1149 1146 1144 1141 1138 1127 1098 1058 1030 1024 1022 1023 1025 1042 0 0 0 1769 1756 1743 1737 1732 1737 1738 0 1741 1752 1750 1754 1748 1754 1769 1762 1761 1752 0
    0 1383 1383 1369 1344 1331 1352 1361 1364 1366 1384 1380 0 0 0 1443 0 0 0 1642 1614 1619 1620 1637 1633 1636 1624 1620 1609 1624 1646 0 0 0 0 0 0 0 0 0 1754 0 0 1041 1019 1006 1015 1006 1003 1000 1001 1001 1002 1001 1001 1000 1000 999 1000 1001 1002 1001 1001 1001 1001 1001 1002 1003 1004 1003 1004 1002 1002 1002 1002 1002 1002 1003 1004 1004 1003 1003 1004 1004 1004 1004 1004 1003 1002 1002 1003 1005 1005 1005 1005 1005 1006 1006 1007 1006 1007 1006 1007 1007 1008 1009 1010 1023 1049 1087 1113 1128 1142 1149 1155 1159 1162 1166 1171 1178 1183 1183 1186 1188 1192 1193 1189 1185 1184 1186 1189 1190 1191 1190 1191 1192 1193 1193 1193 1195 1197 1196 1195 1194 1195 1196 1197 1198 1196 1198 1198 1197 1195 1195 1195 1194 1194 1194 1195 1195 1193 1193 1193 1194 1194 1194 1195 1194 1194 1193 1193 1192 1192 1192 1192 1191 1192 1192 1193 1192 1191 1191 1191 1192 1192 1192 1190 1190 1190 1190 1191 1192 1191 1190 1190 1190 1190 1189 1189 1190 1189 1189 1189 1189 1189 1189 1188 1187 1186 1189 1190 1191 1189 1189 1188 1188 1187 1186 1186 1187 1188 1188 1188 1189 1188 1188 1186 1187 1187 1188 1188 1189 1189 1191 1191 1191 1191 1190 1188 1188 1187 1188 1190 1190 1191 1190 1190 1189 1189 1189 1189 1189 1189 1190 1190 1189 1187 1187 1187 1187 1187 1189 1189 1188 1188 1189 1191 1190 1189 1188 1188 1188 1189 1189 1189 1187 1187 1188 1189 1189 1190 1190 1189 1189 1189 1190 1191 1190 1190 1188 1189 1189 1190 1189 1191 1190 1191 1189 1190 1190 1190 1191 1192 1191 1192 1191 1191 1190 1192 1192 1192 1190 1190 1191 1192 1192 1192 1191 1191 1190 1190 1190 1190 1191 1192 1192 1191 1190 1191 1192 1192 1193 1191 1190 1191 1192 1192 1191 1192 1192 1192 1191 1191 1191 1192 1192 1192 1193 1193 1192 1192 1192 1192 1191 1193 1193 1194 1194 1195 1195 1194 1194 1194 1194 1194 1195 1195 1196 1195 1196 1196 1195 1196 1195 1196 1195 1195 1194 1194 1196 1196 1196 1195 1196 1197 1198 1198 1197 1196 1196 1197 1197 1196 1195 1196 1198 1200 1201 1200 1199 1200 1201 1201 1200 1200 1199 1200 1200 1201 1202 1204 1205 1205 1203 1202 1202 1203 1203 1204 1206 1207 1207 1208 1207 1206 1207 1208 1208 1206 1206 1205 1206 1207 1209 1208 1207 1207 1207 1208 1207 1207 1206 1207 1206 1206 1205 1206 1205 1205 1204 1204 1206 1210 1212 1213 1213 1211 1209 1207 1205 1201 1198 1194 1192 1188 1186 1183 1181 1178 1175 1171 1167 1163 1159 1156 1153 1150 1146 1144 1141 1139 1129 1099 1057 1030 1023 1021 1022 1023 1032 0 1755 1756 0 1735 1750 1736 1731 1729 1736 1741 1759 1755 1747 1739 1749 1761 1772 1775 1762 1757 0
    0 1399 1395 1392 1384 1365 1359 1360 1362 1367 1376 1373 1372 1372 1394 1422 1410 1485 1585 1631 1614 1618 1626 1634 1630 1625 1616 1613 1616 1631 1644 0 1643 0 0 0 0 0 0 0 0 0 0 1036 1017 1003 1005 1004 1002 1000 999 999 1001 1001 1001 1000 1000 999 1001 1001 1002 1001 1002 1002 1001 1001 1001 1002 1004 1004 1004 1002 1002 1001 1001 1000 1002 1002 1004 1003 1004 1004 1005 1005 1005 1004 1003 1002 1002 1001 1002 1004 1006 1005 1005 1005 1005 1005 1005 1005 1007 1006 1007 1007 1007 1008 1009 1022 1049 1087 1113 1128 1141 1148 1154 1159 1161 1165 1172 1180 1183 1183 1185 1188 1192 1193 1189 1185 1183 1186 1188 1190 1191 1192 1193 1193 1193 1193 1193 1195 1197 1195 1195 1195 1196 1196 1196 1197 1196 1197 1197 1197 1195 1195 1195 1194 1193 1193 1194 1195 1194 1194 1195 1194 1194 1193 1193 1193 1193 1194 1194 1193 1192 1192 1193 1193 1192 1193 1193 1192 1190 1190 1190 1191 1190 1190 1189 1189 1190 1191 1191 1191 1191 1190 1190 1189 1190 1190 1190 1190 1189 1188 1189 1189 1190 1189 1188 1187 1187 1190 1190 1190 1190 1189 1189 1188 1188 1189 1188 1187 1186 1188 1188 1190 1189 1189 1189 1189 1188 1188 1188 1188 1189 1189 1190 1190 1190 1190 1188 1188 1187 1188 1189 1190 1189 1188 1189 1188 1189 1189 1190 1189 1190 1190 1190 1188 1188 1189 1188 1189 1188 1190 1189 1189 1188 1189 1191 1191 1189 1190 1189 1190 1189 1189 1189 1188 1188 1189 1189 1189 1189 1190 1190 1189 1189 1190 1190 1190 1190 1190 1190 1190 1190 1189 1190 1190 1189 1189 1189 1189 1190 1191 1192 1192 1191 1191 1191 1190 1191 1192 1192 1191 1190 1192 1192 1192 1191 1191 1191 1191 1190 1190 1190 1191 1192 1192 1191 1191 1191 1192 1191 1193 1190 1190 1190 1191 1192 1192 1192 1191 1191 1190 1191 1191 1192 1193 1193 1194 1193 1192 1193 1193 1193 1193 1194 1195 1194 1194 1195 1196 1195 1194 1194 1195 1195 1196 1196 1196 1195 1196 1195 1196 1196 1196 1196 1196 1195 1195 1194 1196 1196 1197 1196 1196 1197 1199 1198 1199 1197 1197 1197 1198 1197 1196 1197 1198 1199 1202 1201 1201 1201 1201 1201 1199 1201 1201 1202 1201 1203 1204 1206 1205 1206 1205 1204 1204 1204 1204 1205 1206 1206 1207 1207 1207 1208 1208 1209 1208 1207 1206 1207 1207 1208 1208 1208 1208 1208 1208 1208 1207 1208 1207 1208 1207 1207 1206 1206 1205 1205 1204 1204 1206 1209 1212 1213 1212 1210 1208 1206 1204 1200 1197 1194 1191 1187 1185 1182 1181 1179 1177 1173 1169 1165 1160 1157 1155 1152 1148 1145 1142 1139 1128 1099 1058 1031 1024 1022 1024 1026 1032 0 0 0 0 1747 1740 1736 1736 1735 1739 1759 1776 1769 1751 1749 1750 1763 1779 1771 1773 1759 0
    0 1393 1393 1396 1401 1397 1390 1370 1371 1372 1376 1373 1376 1385 1391 1383 1398 0 0 0 1610 1621 1630 1634 1627 1620 1613 1614 1624 1636 1634 1645 0 0 0 0 0 0 0 0 0 0 0 1019 1012 1008 1012 1005 1002 1000 999 999 1000 1000 1000 1000 1000 1000 1001 1001 1001 1000 1001 1003 1002 1002 1001 1002 1003 1004 1004 1004 1003 1001 1000 999 1002 1002 1004 1003 1004 1005 1005 1005 1004 1004 1004 1003 1002 1001 1002 1004 1006 1005 1006 1005 1007 1005 1006 1005 1006 1006 1006 1006 1006 1008 1009 1023 1050 1087 1113 1128 1140 1148 1155 1160 1162 1166 1172 1179 1181 1182 1185 1188 1193 1193 1190 1185 1184 1186 1189 1190 1191 1191 1193 1194 1193 1192 1192 1194 1196 1195 1195 1195 1197 1196 1195 1196 1196 1197 1197 1198 1196 1195 1196 1196 1195 1194 1194 1193 1193 1193 1195 1194 1194 1193 1194 1193 1193 1194 1193 1193 1192 1192 1192 1193 1193 1194 1193 1193 1192 1191 1190 1190 1189 1189 1190 1191 1192 1192 1191 1191 1190 1189 1189 1189 1189 1189 1191 1190 1190 1189 1189 1189 1189 1189 1188 1187 1187 1188 1189 1188 1189 1188 1188 1188 1189 1190 1191 1189 1188 1188 1190 1190 1189 1189 1189 1189 1188 1188 1188 1188 1189 1189 1189 1190 1190 1191 1189 1188 1187 1188 1188 1189 1189 1187 1187 1188 1189 1190 1191 1191 1191 1190 1189 1188 1189 1190 1189 1189 1188 1188 1188 1188 1188 1189 1190 1190 1189 1189 1189 1189 1190 1189 1189 1188 1188 1189 1190 1190 1190 1190 1190 1190 1190 1189 1189 1190 1190 1191 1191 1189 1188 1187 1188 1189 1189 1190 1190 1189 1188 1189 1191 1190 1190 1191 1193 1192 1192 1191 1193 1191 1191 1191 1191 1191 1192 1191 1192 1191 1191 1190 1191 1191 1191 1190 1190 1189 1190 1191 1190 1190 1189 1189 1190 1192 1193 1192 1192 1192 1191 1190 1191 1191 1192 1192 1193 1193 1193 1193 1193 1192 1192 1191 1193 1193 1194 1193 1194 1194 1194 1193 1194 1194 1195 1195 1195 1196 1195 1195 1194 1194 1194 1196 1196 1197 1195 1195 1194 1196 1197 1197 1196 1195 1197 1197 1198 1198 1198 1197 1198 1198 1199 1198 1198 1198 1199 1200 1201 1201 1201 1200 1200 1198 1200 1201 1203 1202 1203 1203 1204 1204 1205 1204 1203 1203 1203 1203 1204 1204 1204 1205 1206 1207 1207 1208 1208 1209 1207 1206 1206 1207 1208 1208 1209 1209 1209 1207 1208 1207 1208 1208 1209 1208 1207 1206 1205 1204 1204 1203 1204 1206 1210 1212 1213 1212 1209 1206 1205 1203 1200 1196 1192 1189 1185 1184 1181 1180 1177 1175 1173 1168 1166 1162 1159 1156 1153 1149 1145 1141 1138 1127 1098 1059 1032 1025 1021 1022 1024 1031 0 1772 1767 0 0 1734 1728 1738 1741 1750 1771 1766 1757 1766 1757 1753 1761 1760 1768 1762 1767 0
    0 1383 1390 1397 1403 1407 1407 1401 1400 1400 1396 1383 1381 1383 1388 1385 1386 1405 1429 0 1590 1602 1617 1625 1628 1624 1610 1632 0 1640 1650 0 0 0 0 0 0 0 0 0 0 0 0 1008 1007 1014 1016 1008 1002 1000 999 1000 1000 1000 999 1000 1001 1002 1002 1001 999 999 1000 1002 1002 1002 1001 1002 1003 1005 1004 1003 1002 1001 1000 1001 1003 1003 1004 1003 1003 1003 1004 1004 1003 1005 1005 1004 1003 1002 1003 1003 1006 1005 1005 1005 1006 1006 1007 1006 1007 1005 1005 1005 1005 1007 1008 1023 1050 1086 1112 1127 1140 1148 1155 1161 1164 1167 1173 1179 1181 1183 1187 1190 1193 1192 1189 1185 1185 1187 1189 1189 1191 1192 1194 1194 1194 1192 1192 1194 1195 1195 1194 1195 1197 1196 1195 1196 1196 1196 1197 1197 1196 1195 1196 1195 1195 1194 1195 1195 1195 1195 1195 1193 1193 1194 1193 1192 1191 1193 1193 1193 1192 1193 1193 1193 1192 1193 1192 1193 1193 1192 1192 1191 1190 1190 1191 1192 1192 1191 1190 1189 1189 1188 1189 1189 1189 1189 1190 1189 1189 1188 1190 1190 1190 1190 1190 1189 1189 1189 1190 1188 1188 1188 1189 1188 1189 1190 1192 1190 1188 1189 1190 1190 1188 1189 1190 1190 1189 1188 1187 1187 1188 1188 1188 1189 1191 1192 1191 1189 1189 1188 1189 1189 1189 1188 1186 1187 1188 1190 1190 1189 1190 1190 1191 1190 1189 1190 1189 1190 1189 1189 1187 1188 1188 1189 1189 1188 1188 1189 1190 1190 1190 1189 1188 1187 1188 1189 1190 1190 1190 1190 1190 1190 1190 1190 1190 1191 1190 1192 1191 1190 1188 1188 1189 1190 1188 1188 1189 1189 1188 1188 1190 1190 1189 1190 1192 1192 1191 1190 1191 1191 1191 1191 1190 1191 1190 1191 1192 1192 1192 1192 1192 1192 1190 1189 1189 1189 1190 1191 1191 1191 1191 1192 1193 1194 1194 1194 1193 1193 1193 1193 1193 1193 1193 1194 1194 1194 1193 1194 1194 1193 1194 1193 1193 1193 1194 1194 1194 1194 1194 1194 1194 1195 1195 1195 1195 1196 1196 1196 1195 1195 1194 1196 1196 1198 1197 1197 1195 1196 1196 1196 1196 1197 1197 1198 1197 1197 1196 1197 1199 1199 1200 1199 1199 1200 1199 1200 1200 1201 1201 1202 1200 1199 1200 1203 1204 1203 1202 1202 1204 1204 1204 1204 1204 1205 1205 1205 1206 1205 1205 1205 1206 1207 1208 1208 1207 1208 1207 1207 1206 1207 1207 1208 1209 1209 1209 1208 1209 1209 1208 1208 1208 1208 1206 1206 1205 1204 1203 1202 1203 1206 1210 1212 1213 1212 1209 1206 1205 1203 1200 1195 1192 1189 1185 1184 1181 1179 1178 1176 1172 1168 1165 1162 1160 1156 1153 1148 1146 1142 1138 1125 1095 1058 1032 1025 1022 1023 1023 1034 0 1755 1757 1743 0 0 1729 1740 1745 1761 1756 1747 1746 1761 1765 1756 1751 1757 1748 1758 1759 0
    0 1374 1385 1395 1403 1408 1424 1429 1426 1426 1429 1404 1375 1383 1387 1387 1391 1400 1420 0 0 0 0 1608 1621 1621 1625 0 1640 0 0 0 0 0 0 0 0 0 0 0 0 0 0 1004 1009 1015 1022 1011 1005 1002 1001 1001 1000 999 998 998 999 1001 1002 1002 1000 999 1001 1001 1002 1002 1003 1004 1004 1005 1004 1003 1003 1002 1002 1002 1002 1003 1004 1002 1002 1002 1002 1003 1003 1006 1006 1005 1003 1002 1003 1004 1007 1005 1005 1004 1005 1005 1006 1006 1007 1006 1006 1006 1006 1008 1010 1024 1051 1087 1112 1127 1140 1148 1155 1160 1164 1169 1173 1178 1181 1184 1188 1189 1192 1191 1189 1186 1186 1187 1188 1188 1190 1191 1193 1192 1192 1191 1193 1195 1196 1195 1195 1196 1196 1196 1195 1195 1196 1196 1197 1197 1197 1195 1195 1194 1194 1194 1195 1195 1196 1195 1194 1192 1193 1194 1194 1192 1192 1193 1193 1192 1192 1193 1194 1194 1193 1194 1193 1194 1193 1193 1192 1191 1190 1191 1191 1192 1191 1190 1190 1189 1189 1188 1189 1189 1189 1188 1189 1188 1188 1187 1189 1190 1191 1191 1191 1190 1190 1189 1190 1189 1188 1188 1188 1188 1188 1189 1191 1191 1190 1190 1190 1190 1189 1189 1189 1190 1189 1189 1189 1188 1188 1189 1188 1190 1190 1191 1191 1190 1189 1188 1190 1190 1190 1190 1188 1188 1188 1190 1190 1190 1190 1190 1190 1189 1189 1189 1189 1190 1189 1189 1188 1189 1189 1188 1188 1187 1188 1188 1190 1190 1191 1190 1188 1187 1188 1189 1189 1190 1189 1189 1189 1190 1190 1190 1190 1190 1190 1190 1191 1190 1190 1189 1190 1190 1190 1189 1190 1189 1188 1187 1189 1190 1191 1191 1192 1192 1191 1190 1190 1190 1190 1189 1190 1190 1190 1191 1191 1192 1193 1193 1193 1192 1190 1190 1190 1191 1191 1191 1191 1190 1190 1191 1192 1194 1194 1194 1194 1194 1194 1193 1194 1192 1192 1192 1193 1193 1192 1192 1192 1192 1192 1190 1191 1191 1193 1194 1194 1193 1193 1193 1194 1194 1194 1194 1194 1195 1196 1195 1195 1195 1194 1195 1195 1198 1196 1197 1196 1197 1196 1195 1196 1196 1196 1197 1197 1197 1196 1197 1199 1200 1200 1200 1200 1201 1199 1199 1199 1200 1200 1200 1199 1200 1200 1202 1203 1201 1200 1200 1202 1202 1203 1203 1204 1203 1204 1203 1204 1204 1206 1206 1206 1206 1207 1206 1205 1205 1205 1206 1206 1206 1207 1207 1209 1209 1210 1209 1209 1208 1208 1208 1208 1208 1205 1205 1204 1205 1203 1202 1202 1207 1211 1212 1212 1211 1210 1206 1205 1203 1200 1196 1192 1190 1187 1185 1182 1179 1177 1174 1170 1166 1163 1161 1158 1154 1150 1145 1143 1141 1138 1125 1093 1055 1030 1023 1020 1021 1021 1019 0 0 1749 1749 1748 1750 1732 1736 1761 1767 1743 1737 1745 1750 1760 1749 1737 1739 1745 1742 1728 0
    0 1378 1388 1394 1401 1410 1431 1438 1438 1429 1426 1399 1385 1384 1404 1395 1394 1393 1407 1418 1423 1445 0 0 1600 1606 1605 1607 1624 0 0 0 0 0 0 0 1643 0 0 1668 0 0 0 1010 1011 1014 1016 1007 1003 1001 1000 1000 1000 999 999 999 998 999 1000 1001 1001 1000 1001 1001 1002 1002 1004 1004 1004 1003 1003 1004 1003 1003 1003 1002 1002 1002 1003 1002 1001 1000 1001 1002 1004 1005 1005 1005 1004 1003 1004 1005 1007 1006 1006 1004 1005 1004 1005 1006 1008 1007 1006 1005 1005 1007 1009 1023 1050 1087 1111 1127 1141 1149 1156 1160 1165 1170 1175 1179 1183 1184 1186 1188 1190 1190 1189 1187 1187 1187 1188 1188 1190 1191 1194 1193 1193 1193 1195 1196 1196 1196 1195 1195 1196 1197 1195 1195 1196 1197 1197 1197 1196 1195 1194 1193 1194 1194 1196 1197 1197 1195 1194 1193 1194 1193 1192 1191 1192 1193 1194 1193 1192 1193 1194 1195 1192 1193 1192 1193 1192 1191 1190 1191 1192 1192 1191 1191 1191 1190 1190 1191 1191 1190 1189 1189 1190 1189 1189 1188 1187 1187 1189 1190 1190 1191 1191 1190 1190 1190 1190 1190 1190 1191 1189 1189 1187 1188 1189 1190 1189 1189 1190 1191 1189 1189 1188 1189 1190 1191 1191 1190 1189 1189 1189 1189 1189 1190 1191 1190 1190 1188 1190 1191 1191 1190 1188 1188 1188 1188 1187 1188 1190 1190 1190 1188 1188 1188 1189 1189 1190 1190 1190 1190 1189 1189 1189 1190 1190 1190 1191 1192 1190 1189 1187 1187 1187 1189 1189 1190 1189 1190 1189 1191 1192 1192 1191 1190 1189 1190 1191 1192 1191 1192 1192 1191 1190 1189 1190 1190 1189 1189 1190 1191 1190 1191 1190 1191 1190 1191 1190 1191 1191 1191 1191 1191 1191 1192 1191 1192 1192 1194 1194 1193 1191 1191 1191 1192 1192 1192 1191 1192 1192 1191 1192 1194 1195 1194 1193 1194 1195 1194 1194 1193 1193 1193 1194 1194 1193 1192 1193 1193 1194 1193 1192 1192 1194 1195 1196 1195 1193 1194 1193 1194 1193 1194 1194 1196 1196 1195 1194 1195 1195 1195 1195 1197 1197 1198 1197 1197 1196 1195 1196 1196 1196 1197 1197 1197 1195 1196 1197 1199 1198 1199 1199 1201 1200 1199 1198 1200 1201 1201 1200 1201 1202 1203 1203 1203 1203 1202 1202 1203 1203 1204 1204 1204 1204 1203 1205 1206 1207 1208 1207 1207 1206 1205 1205 1205 1205 1207 1207 1207 1207 1207 1208 1208 1209 1208 1208 1208 1208 1208 1207 1208 1206 1206 1205 1206 1203 1203 1203 1207 1211 1213 1212 1211 1209 1207 1205 1203 1201 1197 1193 1190 1188 1186 1182 1180 1176 1174 1169 1166 1162 1160 1156 1153 1148 1144 1142 1140 1138 1125 1093 1053 1028 1023 1021 1021 1022 1011 0 0 0 1750 1752 1739 1728 1740 1759 1764 1750 1736 1743 1746 1741 1731 1735 1749 1753 1744 1753 0
    0 1385 1386 1382 1388 1403 1423 1425 1429 1430 1432 1422 1412 1409 1403 1393 1377 1377 1394 1391 1386 1399 0 0 0 1570 1582 1594 1611 1598 0 0 0 0 0 0 0 1667 1650 1642 1685 0 0 1012 1018 1012 1012 1004 1003 1001 1000 1000 999 1000 1000 999 997 998 999 1000 1001 1002 1002 1002 1002 1002 1003 1004 1003 1002 1003 1005 1005 1005 1004 1003 1001 1002 1003 1002 1002 1001 1002 1004 1005 1005 1004 1004 1004 1004 1003 1004 1005 1005 1006 1004 1004 1003 1006 1007 1008 1008 1008 1006 1006 1008 1011 1023 1051 1088 1113 1127 1142 1150 1156 1160 1165 1170 1174 1178 1182 1184 1186 1188 1190 1190 1188 1186 1186 1187 1190 1190 1191 1192 1194 1194 1194 1194 1196 1196 1196 1195 1195 1195 1196 1197 1195 1196 1196 1198 1197 1197 1196 1196 1196 1195 1196 1196 1195 1196 1197 1195 1194 1193 1194 1193 1192 1192 1192 1193 1192 1193 1192 1194 1193 1194 1193 1192 1192 1192 1191 1190 1189 1190 1192 1191 1191 1190 1191 1191 1191 1192 1192 1190 1190 1190 1190 1189 1188 1188 1188 1188 1188 1188 1189 1189 1190 1189 1189 1189 1189 1189 1189 1190 1189 1189 1188 1188 1188 1189 1189 1190 1190 1190 1190 1188 1188 1189 1191 1191 1191 1190 1190 1189 1189 1189 1189 1190 1190 1190 1190 1189 1190 1190 1191 1191 1190 1189 1188 1188 1188 1189 1190 1189 1189 1188 1188 1188 1190 1189 1190 1189 1190 1190 1190 1189 1190 1191 1191 1191 1190 1191 1191 1190 1188 1188 1189 1189 1189 1189 1190 1190 1191 1191 1192 1193 1192 1189 1189 1190 1191 1191 1191 1192 1192 1191 1190 1189 1190 1190 1191 1190 1191 1190 1190 1190 1190 1191 1191 1191 1191 1190 1190 1190 1191 1191 1192 1193 1192 1193 1193 1194 1194 1193 1192 1192 1192 1193 1192 1192 1191 1191 1191 1192 1192 1193 1193 1193 1193 1193 1194 1193 1193 1191 1191 1192 1194 1194 1194 1191 1191 1190 1192 1192 1192 1193 1194 1195 1196 1195 1195 1194 1194 1193 1191 1192 1193 1194 1195 1194 1194 1194 1195 1196 1195 1197 1196 1197 1197 1196 1195 1195 1196 1195 1195 1196 1197 1197 1197 1197 1197 1197 1198 1198 1199 1200 1199 1198 1197 1199 1200 1201 1200 1201 1202 1202 1203 1202 1202 1201 1201 1201 1202 1203 1203 1203 1205 1203 1203 1205 1206 1207 1206 1206 1207 1206 1206 1205 1206 1207 1208 1208 1207 1207 1208 1208 1208 1208 1209 1209 1209 1208 1208 1207 1206 1205 1205 1205 1204 1203 1204 1208 1213 1213 1211 1210 1209 1207 1205 1203 1200 1197 1192 1189 1188 1186 1183 1179 1176 1173 1169 1166 1163 1160 1157 1152 1149 1144 1143 1140 1137 1125 1093 1053 1028 1022 1020 1020 1022 1021 0 0 1764 1757 1758 1743 1739 1744 1744 1741 1759 1738 1732 1730 1738 1736 1750 1749 1755 1767 1802 0
    0 1372 1370 1362 1376 1397 1409 1403 1411 1424 1434 1431 1423 1407 1384 0 0 0 0 0 0 0 0 0 0 0 0 0 0 0 0 0 0 0 0 0 0 1706 1677 1677 0 0 0 1004 1017 1016 1012 1004 1001 1000 999 1000 1000 1001 1001 1001 999 999 999 1000 1000 1001 1001 1001 1001 1001 1002 1002 1002 1003 1004 1005 1004 1004 1003 1003 1001 1002 1002 1002 1002 1002 1003 1004 1005 1004 1003 1003 1005 1004 1005 1005 1005 1006 1007 1006 1005 1004 1007 1008 1008 1007 1006 1005 1006 1008 1011 1024 1052 1090 1114 1127 1141 1150 1157 1160 1164 1169 1174 1177 1180 1184 1186 1188 1190 1189 1188 1187 1188 1189 1190 1190 1191 1191 1194 1195 1195 1195 1195 1195 1195 1194 1194 1195 1196 1197 1196 1196 1196 1198 1197 1197 1196 1196 1197 1196 1197 1196 1196 1195 1196 1196 1196 1196 1195 1194 1192 1192 1192 1193 1192 1192 1192 1194 1194 1194 1193 1192 1191 1191 1191 1190 1189 1190 1191 1191 1190 1190 1190 1191 1191 1191 1190 1190 1190 1190 1190 1189 1188 1189 1189 1189 1189 1189 1188 1188 1190 1189 1189 1189 1189 1189 1189 1189 1189 1189 1189 1188 1188 1188 1188 1189 1189 1190 1189 1188 1188 1190 1190 1190 1189 1189 1189 1190 1189 1189 1189 1190 1191 1190 1190 1189 1189 1190 1190 1189 1188 1187 1186 1187 1188 1189 1189 1189 1190 1189 1187 1187 1188 1188 1188 1188 1189 1190 1190 1189 1189 1190 1190 1189 1189 1189 1189 1188 1188 1189 1188 1189 1188 1188 1188 1190 1190 1191 1191 1192 1190 1189 1189 1191 1191 1192 1191 1192 1190 1190 1189 1189 1189 1190 1191 1191 1192 1190 1189 1189 1189 1191 1192 1193 1191 1190 1190 1190 1190 1191 1191 1193 1193 1194 1194 1194 1193 1193 1192 1192 1191 1193 1192 1193 1192 1191 1193 1193 1194 1193 1192 1192 1191 1192 1193 1194 1193 1193 1193 1193 1193 1194 1195 1194 1193 1192 1193 1194 1194 1195 1195 1196 1196 1196 1194 1194 1193 1194 1192 1193 1192 1194 1194 1194 1194 1195 1196 1196 1195 1195 1196 1198 1198 1196 1195 1196 1198 1197 1197 1197 1198 1197 1197 1197 1197 1197 1197 1197 1197 1199 1200 1199 1199 1199 1200 1202 1202 1201 1201 1202 1203 1203 1203 1203 1202 1204 1204 1204 1204 1205 1206 1205 1206 1207 1208 1207 1207 1207 1207 1207 1208 1208 1207 1208 1208 1209 1208 1208 1207 1207 1208 1207 1208 1208 1208 1208 1207 1207 1207 1207 1206 1206 1205 1203 1204 1209 1213 1214 1212 1210 1209 1208 1206 1203 1199 1196 1191 1189 1187 1186 1183 1180 1178 1175 1172 1167 1163 1161 1157 1153 1150 1146 1145 1141 1138 1125 1094 1055 1030 1024 1021 1021 1024 1037 0 0 1768 1759 1747 1742 1744 1742 1737 1735 1750 1738 1728 1713 1741 1747 1743 1762 1761 1789 1799 0
    0 1362 1360 1366 1375 1390 1387 1381 1387 1407 1426 1420 0 0 0 1206 1197 1217 0 1239 0 0 1245 0 0 0 0 0 0 0 0 0 0 0 0 0 0 1717 0 0 0 0 0 1012 1011 1011 1008 1002 999 999 1000 1001 1000 1000 999 1000 999 1001 1000 1000 999 1000 1001 1001 1001 1002 1001 1002 1001 1002 1001 1003 1003 1003 1003 1003 1002 1002 1002 1002 1002 1002 1004 1005 1005 1004 1002 1004 1003 1003 1003 1005 1005 1005 1005 1004 1003 1004 1006 1007 1006 1007 1006 1005 1006 1008 1011 1024 1052 1090 1114 1128 1140 1148 1155 1159 1163 1167 1172 1176 1179 1184 1187 1189 1190 1190 1188 1187 1187 1189 1191 1191 1191 1191 1193 1196 1197 1196 1194 1194 1194 1193 1194 1195 1196 1197 1196 1195 1195 1196 1197 1196 1196 1196 1197 1196 1196 1196 1196 1196 1197 1196 1196 1196 1195 1194 1192 1192 1193 1193 1192 1191 1192 1193 1193 1193 1193 1192 1192 1191 1192 1191 1190 1191 1191 1191 1190 1190 1190 1190 1190 1190 1190 1191 1190 1190 1188 1188 1188 1189 1189 1190 1190 1190 1189 1189 1190 1191 1191 1190 1190 1189 1189 1188 1189 1189 1188 1190 1189 1190 1190 1190 1189 1190 1189 1188 1188 1190 1190 1189 1188 1189 1189 1189 1189 1190 1189 1189 1188 1189 1189 1189 1189 1189 1189 1189 1189 1187 1187 1188 1189 1190 1188 1189 1189 1190 1188 1188 1187 1188 1187 1186 1188 1190 1191 1188 1187 1187 1189 1189 1190 1190 1189 1189 1189 1190 1190 1190 1189 1188 1188 1189 1189 1189 1189 1189 1188 1189 1189 1191 1191 1191 1189 1189 1189 1190 1190 1190 1190 1189 1190 1189 1190 1189 1189 1188 1189 1192 1193 1192 1190 1189 1189 1188 1189 1190 1191 1191 1192 1193 1194 1194 1192 1193 1192 1194 1193 1193 1192 1192 1192 1191 1192 1194 1193 1192 1191 1192 1192 1192 1192 1192 1192 1192 1192 1192 1193 1194 1195 1195 1193 1192 1191 1193 1193 1194 1194 1194 1195 1194 1194 1193 1193 1194 1192 1192 1191 1193 1194 1194 1195 1196 1196 1196 1194 1194 1195 1197 1197 1196 1195 1196 1198 1197 1197 1198 1199 1198 1198 1197 1197 1197 1197 1197 1197 1197 1198 1199 1200 1200 1201 1201 1201 1200 1201 1201 1202 1201 1202 1202 1203 1203 1204 1203 1203 1205 1207 1205 1205 1206 1207 1207 1206 1206 1206 1207 1208 1208 1208 1209 1208 1209 1208 1208 1207 1207 1208 1209 1209 1209 1209 1208 1207 1206 1207 1207 1207 1206 1204 1202 1204 1208 1214 1213 1211 1209 1209 1208 1206 1203 1198 1194 1190 1189 1186 1185 1183 1180 1179 1176 1173 1167 1164 1160 1158 1153 1151 1148 1146 1142 1138 1124 1093 1055 1030 1024 1021 1022 1026 1042 0 0 1736 1753 1752 1754 1759 1750 1747 1746 1753 1738 1715 1734 1742 1742 1728 1737 1783 1774 1774 0
    0 1355 1359 1370 1377 1380 1363 0 0 0 0 0 0 1201 1180 1174 1173 1180 1191 1197 1193 1195 1197 1195 1198 1219 1239 1227 1226 1222 1190 1143 0 0 0 0 0 0 0 0 0 0 0 1015 1017 1016 1012 1003 999 998 1000 1001 1001 1000 999 1000 1000 1001 1001 1001 1000 1000 1001 1000 1000 1000 1001 1002 1002 1001 1001 1000 1001 1001 1002 1001 1001 1001 1001 1002 1001 1002 1004 1005 1004 1003 1003 1004 1003 1003 1005 1007 1007 1005 1005 1005 1005 1005 1005 1005 1005 1005 1004 1005 1005 1005 1008 1023 1051 1089 1112 1127 1139 1147 1153 1158 1163 1168 1173 1176 1180 1183 1186 1189 1191 1191 1189 1188 1187 1188 1188 1190 1190 1191 1192 1195 1197 1196 1194 1194 1194 1194 1194 1196 1196 1196 1195 1195 1195 1196 1196 1196 1196 1196 1196 1195 1195 1196 1196 1197 1196 1196 1196 1196 1194 1193 1192 1192 1193 1193 1193 1192 1192 1192 1192 1193 1192 1191 1190 1190 1191 1191 1191 1190 1190 1190 1191 1191 1191 1191 1190 1190 1189 1191 1191 1191 1189 1189 1190 1191 1191 1190 1190 1191 1191 1190 1191 1191 1191 1190 1190 1190 1190 1189 1189 1188 1188 1189 1190 1190 1188 1188 1189 1190 1190 1189 1188 1190 1189 1189 1188 1189 1188 1188 1187 1188 1188 1188 1188 1188 1188 1188 1188 1189 1188 1188 1187 1187 1187 1188 1189 1189 1188 1189 1189 1189 1188 1188 1187 1186 1186 1187 1188 1190 1190 1188 1186 1186 1188 1189 1190 1190 1189 1189 1189 1190 1189 1189 1189 1188 1188 1188 1188 1188 1188 1189 1188 1189 1189 1191 1190 1191 1190 1190 1189 1189 1189 1190 1190 1190 1191 1190 1190 1190 1190 1189 1189 1191 1190 1191 1191 1190 1189 1189 1189 1190 1191 1191 1191 1192 1193 1194 1192 1193 1191 1193 1193 1194 1193 1192 1191 1191 1191 1193 1193 1193 1192 1192 1191 1192 1192 1192 1192 1193 1194 1194 1193 1193 1194 1196 1195 1194 1192 1194 1194 1195 1194 1196 1196 1196 1194 1194 1193 1195 1193 1193 1193 1195 1195 1195 1195 1197 1197 1196 1194 1195 1196 1196 1197 1197 1197 1197 1198 1198 1198 1197 1198 1198 1197 1198 1198 1199 1198 1198 1198 1198 1199 1201 1201 1200 1201 1201 1202 1202 1202 1202 1203 1203 1204 1204 1204 1205 1205 1205 1205 1205 1206 1206 1207 1207 1207 1208 1208 1208 1208 1208 1209 1209 1209 1208 1207 1208 1208 1209 1208 1209 1208 1209 1208 1208 1209 1209 1208 1207 1207 1207 1207 1206 1205 1203 1204 1208 1213 1214 1212 1209 1209 1208 1207 1202 1199 1195 1193 1191 1187 1185 1182 1181 1179 1177 1172 1168 1164 1159 1156 1153 1150 1147 1144 1140 1136 1122 1092 1055 1031 1024 1021 1021 1022 1034 0 0 1732 1730 1742 1756 1756 1752 1754 1759 1756 1735 1720 1723 1751 1736 1735 1749 1757 1753 1767 0
    0 1344 1348 1356 1350 0 0 1210 1201 1186 1189 1178 1170 1164 1164 1168 1168 1172 1173 1179 1178 1179 1180 1180 1186 1194 1204 1201 1206 1213 1213 0 0 0 0 0 0 0 0 0 0 0 0 1011 1010 1016 1011 1005 1000 998 999 1000 1001 1000 999 999 999 1000 1000 1000 1000 1000 1000 1000 1000 1000 1001 1002 1002 1001 1000 1001 1001 1001 1002 1002 1002 1002 1002 1003 1002 1003 1003 1005 1005 1004 1002 1003 1002 1003 1003 1005 1005 1004 1003 1004 1004 1005 1004 1005 1005 1006 1006 1005 1005 1004 1007 1022 1051 1088 1111 1127 1138 1146 1152 1157 1163 1167 1173 1176 1182 1185 1188 1190 1192 1192 1188 1185 1184 1186 1188 1190 1191 1191 1191 1193 1195 1195 1194 1194 1194 1194 1195 1195 1194 1194 1195 1195 1196 1195 1194 1194 1196 1195 1194 1194 1196 1196 1196 1196 1196 1195 1194 1194 1194 1193 1192 1192 1193 1193 1194 1194 1193 1192 1191 1192 1192 1191 1190 1190 1191 1191 1190 1190 1191 1191 1191 1191 1191 1192 1190 1191 1190 1191 1190 1190 1188 1189 1189 1191 1191 1191 1191 1191 1191 1189 1189 1189 1190 1190 1190 1189 1190 1189 1189 1189 1189 1190 1190 1190 1189 1188 1189 1190 1190 1189 1188 1189 1189 1190 1189 1190 1189 1188 1187 1189 1190 1189 1189 1188 1187 1187 1188 1189 1188 1188 1188 1188 1188 1188 1189 1189 1189 1190 1190 1189 1188 1187 1188 1187 1188 1188 1189 1189 1189 1188 1187 1186 1189 1190 1190 1190 1190 1190 1189 1190 1189 1189 1189 1189 1190 1188 1188 1188 1189 1189 1190 1190 1189 1188 1188 1189 1190 1189 1189 1189 1190 1191 1192 1191 1191 1190 1190 1191 1191 1190 1190 1191 1191 1191 1192 1191 1191 1190 1190 1191 1191 1191 1192 1191 1192 1192 1193 1193 1192 1194 1194 1194 1192 1191 1190 1190 1191 1192 1192 1193 1192 1192 1193 1193 1193 1192 1191 1192 1193 1193 1194 1194 1194 1195 1194 1193 1192 1194 1194 1195 1194 1195 1196 1196 1195 1194 1193 1194 1193 1193 1193 1196 1195 1194 1194 1195 1195 1195 1194 1195 1195 1195 1195 1195 1196 1196 1197 1196 1197 1196 1197 1198 1198 1197 1198 1198 1199 1199 1198 1197 1198 1199 1200 1198 1199 1199 1200 1201 1202 1202 1203 1202 1202 1202 1202 1202 1203 1205 1205 1204 1206 1206 1206 1205 1206 1207 1207 1207 1208 1208 1209 1209 1209 1209 1207 1208 1208 1209 1208 1209 1208 1209 1209 1209 1209 1209 1209 1208 1208 1207 1206 1205 1204 1203 1204 1208 1213 1213 1212 1209 1209 1207 1205 1202 1199 1196 1194 1191 1187 1184 1182 1180 1177 1174 1171 1168 1164 1158 1155 1152 1150 1147 1143 1141 1136 1122 1091 1054 1031 1024 1021 1020 1022 1027 0 0 1740 1730 1735 1749 1756 1761 1757 1751 1753 1730 1725 1725 1743 1746 1738 1761 1761 1759 1758 0
    0 1330 1329 0 0 1196 1185 1177 1167 1161 1162 1163 1160 1158 1159 1163 1162 1165 1166 1172 1176 1177 1181 1178 1181 1180 1188 1189 1198 1203 1212 1211 1225 1239 0 0 0 0 0 0 0 0 0 1017 1008 1019 1017 1010 1002 999 999 1000 1002 1001 999 1000 999 1000 1000 1000 1001 1001 1001 1000 1000 1000 1001 1003 1003 1003 1002 1001 1000 999 1000 1001 1001 1001 1001 1003 1002 1004 1003 1004 1004 1003 1003 1002 1002 1003 1003 1004 1005 1004 1004 1005 1005 1006 1006 1007 1007 1005 1004 1004 1004 1004 1006 1021 1050 1087 1111 1126 1138 1145 1151 1156 1163 1168 1173 1177 1182 1186 1190 1192 1193 1193 1187 1186 1184 1186 1187 1189 1191 1191 1191 1191 1192 1193 1194 1195 1194 1195 1195 1195 1195 1195 1195 1195 1196 1195 1195 1195 1196 1194 1193 1193 1195 1196 1197 1196 1196 1194 1193 1194 1194 1194 1193 1193 1194 1194 1194 1194 1193 1192 1191 1193 1193 1192 1191 1191 1191 1190 1189 1189 1190 1190 1190 1190 1192 1192 1190 1189 1189 1189 1189 1189 1188 1189 1189 1191 1191 1190 1190 1191 1190 1189 1189 1189 1189 1189 1190 1190 1190 1188 1188 1188 1189 1190 1190 1189 1187 1187 1188 1189 1190 1190 1189 1190 1191 1190 1190 1189 1188 1187 1186 1188 1190 1190 1190 1189 1188 1187 1186 1186 1187 1187 1188 1188 1189 1188 1187 1187 1189 1190 1191 1189 1189 1187 1189 1189 1190 1188 1189 1189 1189 1188 1187 1186 1187 1188 1189 1190 1189 1191 1190 1190 1189 1189 1187 1188 1187 1188 1187 1188 1188 1189 1189 1190 1189 1188 1187 1189 1191 1190 1189 1189 1189 1190 1192 1193 1192 1192 1190 1191 1190 1190 1189 1190 1190 1191 1192 1192 1191 1191 1190 1191 1191 1192 1192 1192 1192 1192 1192 1192 1191 1192 1193 1193 1193 1191 1190 1190 1190 1192 1193 1193 1193 1192 1193 1194 1195 1195 1193 1192 1193 1194 1194 1195 1194 1194 1193 1193 1193 1195 1195 1196 1195 1196 1196 1196 1195 1194 1193 1194 1193 1196 1195 1197 1195 1195 1195 1196 1195 1195 1195 1196 1195 1196 1196 1197 1197 1196 1197 1196 1196 1196 1197 1198 1198 1197 1198 1198 1199 1199 1199 1199 1200 1201 1200 1199 1200 1201 1202 1203 1203 1203 1202 1203 1203 1203 1202 1203 1203 1205 1206 1205 1205 1206 1207 1208 1208 1207 1208 1207 1209 1209 1209 1208 1207 1208 1206 1207 1207 1210 1209 1210 1208 1208 1208 1208 1208 1208 1209 1209 1209 1208 1206 1205 1205 1203 1205 1208 1213 1214 1213 1212 1210 1207 1204 1202 1200 1198 1196 1192 1189 1186 1184 1181 1177 1173 1170 1167 1163 1158 1155 1152 1150 1146 1142 1139 1134 1122 1090 1054 1030 1025 1022 1023 1025 1039 0 0 0 1732 1734 1742 1746 1749 1745 1734 1731 1747 1724 1743 1753 1741 1753 1767 1764 1755 1740 0
    0 1316 1254 1190 1176 1167 1166 1165 1160 1155 1157 1159 1160 1157 1156 1158 1159 1162 1163 1166 1170 1172 1178 1176 1177 1175 1183 1185 1190 1194 1202 1206 1217 1225 1243 0 0 0 0 0 0 0 1016 1010 1005 1013 1014 1012 1002 999 999 1000 1001 1001 1000 1001 1000 1000 1000 1000 1000 1000 1000 1000 1000 1002 1002 1002 1002 1003 1003 1003 1001 1001 1000 1003 1002 1002 1002 1005 1004 1005 1003 1003 1003 1003 1003 1002 1003 1003 1004 1004 1004 1004 1004 1005 1004 1005 1005 1006 1006 1005 1005 1005 1006 1006 1008 1022 1050 1087 1111 1126 1137 1145 1152 1158 1164 1168 1173 1177 1182 1187 1191 1193 1195 1193 1187 1186 1184 1187 1188 1190 1192 1191 1192 1192 1191 1191 1192 1195 1195 1196 1195 1195 1195 1196 1196 1195 1195 1194 1194 1194 1196 1194 1193 1193 1196 1197 1197 1196 1195 1194 1193 1194 1194 1195 1194 1194 1194 1193 1193 1193 1192 1192 1192 1193 1193 1192 1192 1192 1192 1190 1189 1190 1192 1191 1190 1190 1192 1191 1189 1187 1188 1188 1188 1188 1188 1189 1189 1190 1190 1190 1190 1190 1189 1188 1188 1189 1189 1189 1190 1189 1189 1188 1189 1189 1190 1191 1190 1189 1187 1187 1188 1189 1188 1189 1188 1189 1190 1190 1191 1190 1189 1186 1186 1188 1190 1191 1190 1188 1187 1186 1186 1187 1189 1188 1189 1189 1190 1188 1187 1187 1189 1190 1192 1190 1189 1188 1189 1190 1190 1189 1189 1188 1189 1187 1187 1186 1187 1188 1189 1189 1189 1190 1189 1189 1189 1189 1188 1188 1186 1186 1186 1187 1188 1188 1190 1191 1190 1188 1188 1190 1191 1190 1189 1190 1190 1191 1193 1193 1192 1189 1188 1188 1189 1190 1190 1190 1191 1192 1192 1192 1191 1190 1191 1191 1191 1191 1192 1192 1192 1191 1191 1191 1192 1191 1192 1192 1192 1192 1192 1192 1192 1191 1192 1192 1192 1192 1192 1192 1193 1193 1192 1191 1190 1192 1193 1193 1193 1192 1192 1191 1192 1193 1195 1195 1194 1194 1193 1194 1194 1194 1193 1194 1194 1196 1195 1196 1195 1195 1195 1196 1195 1195 1195 1195 1195 1195 1196 1196 1196 1195 1195 1195 1196 1196 1199 1199 1197 1196 1197 1198 1198 1197 1198 1198 1199 1199 1200 1199 1201 1201 1201 1201 1202 1203 1202 1202 1202 1202 1202 1202 1202 1203 1203 1203 1203 1205 1207 1208 1207 1206 1206 1205 1206 1207 1208 1207 1207 1208 1206 1207 1207 1209 1209 1209 1208 1208 1208 1208 1207 1208 1207 1208 1208 1208 1206 1205 1205 1203 1206 1208 1214 1214 1214 1213 1211 1207 1204 1202 1200 1198 1194 1191 1189 1187 1185 1181 1177 1173 1170 1167 1163 1158 1155 1152 1150 1147 1143 1140 1135 1121 1089 1052 1030 1024 1023 1025 1029 1043 0 0 0 1742 1748 1754 1757 1730 1745 1741 1719 1714 1747 1751 1757 1748 1752 1757 1752 1701 1737 0
    0 1171 1166 1160 1160 1157 1154 1155 1154 1154 1153 1155 1157 1155 1154 1153 1155 1157 1158 1159 1162 1166 1173 1173 1175 1175 1182 1181 1186 1188 1194 1199 1211 1221 1232 1236 0 0 0 0 0 0 0 1018 1009 1008 1011 1008 1001 998 999 1000 1000 999 1000 1000 1001 1001 1001 1001 1001 1001 1001 1000 1001 1001 1001 1001 1001 1002 1002 1002 1000 1000 1000 1002 1002 1002 1003 1004 1004 1005 1003 1002 1002 1002 1003 1003 1004 1003 1004 1005 1005 1004 1003 1004 1003 1004 1004 1004 1005 1003 1003 1004 1006 1007 1009 1022 1049 1085 1109 1124 1138 1145 1154 1159 1165 1169 1173 1177 1181 1186 1189 1192 1193 1192 1188 1185 1185 1187 1190 1192 1192 1193 1193 1192 1190 1191 1192 1194 1195 1196 1195 1195 1195 1196 1195 1196 1195 1195 1194 1193 1193 1193 1192 1193 1194 1196 1196 1195 1195 1195 1194 1194 1194 1195 1194 1195 1194 1194 1193 1193 1192 1191 1191 1192 1192 1191 1191 1192 1192 1191 1191 1191 1192 1190 1190 1190 1192 1190 1189 1188 1188 1189 1190 1189 1189 1189 1189 1189 1189 1189 1189 1189 1189 1189 1189 1189 1189 1189 1190 1191 1190 1189 1189 1189 1190 1191 1190 1189 1187 1188 1188 1189 1189 1188 1188 1188 1189 1189 1190 1189 1188 1185 1186 1188 1191 1191 1189 1188 1187 1186 1187 1187 1188 1187 1187 1188 1189 1188 1186 1188 1189 1190 1190 1189 1189 1188 1189 1190 1189 1189 1189 1190 1190 1188 1188 1188 1187 1187 1187 1188 1189 1190 1189 1189 1189 1189 1188 1188 1186 1186 1186 1188 1189 1189 1190 1191 1191 1189 1189 1189 1190 1190 1189 1189 1188 1190 1191 1190 1190 1189 1188 1187 1188 1189 1190 1191 1191 1192 1192 1191 1190 1190 1192 1193 1193 1192 1192 1192 1192 1192 1191 1191 1191 1191 1190 1191 1191 1192 1192 1193 1193 1192 1193 1193 1193 1193 1193 1194 1193 1194 1193 1193 1191 1192 1192 1193 1193 1192 1192 1191 1192 1192 1195 1196 1194 1193 1193 1194 1195 1196 1196 1196 1195 1196 1195 1196 1196 1196 1195 1196 1196 1197 1195 1195 1195 1195 1197 1197 1197 1196 1196 1195 1196 1198 1198 1199 1196 1197 1198 1199 1198 1198 1199 1200 1201 1201 1202 1201 1201 1202 1202 1203 1201 1202 1202 1204 1203 1203 1203 1204 1203 1203 1204 1204 1204 1205 1207 1209 1208 1208 1207 1208 1206 1205 1205 1206 1207 1207 1206 1207 1208 1209 1208 1208 1208 1209 1209 1209 1208 1208 1209 1209 1208 1208 1206 1205 1205 1204 1206 1209 1215 1215 1215 1213 1210 1208 1206 1204 1201 1198 1195 1191 1189 1188 1186 1183 1179 1174 1170 1166 1163 1159 1157 1152 1149 1145 1141 1138 1134 1121 1088 1051 1029 1025 1024 1027 1027 1038 0 0 0 1737 1750 1762 1766 1768 1763 1766 1741 1724 1735 1743 1757 1750 1754 1751 1713 1714 1733 0
    0 1161 1156 1153 1153 1154 1152 1153 1152 1149 1148 1151 1153 1152 1149 1149 1153 1156 1159 1158 1160 1163 1169 1169 1172 1173 1178 1179 1185 1190 1191 1192 1203 1212 1220 1222 1240 0 0 0 0 0 0 1031 1015 1003 1007 1005 1001 998 998 998 999 999 1001 1001 1001 1001 1001 1001 1001 1001 1001 1001 1001 1000 1000 1000 1000 1000 1001 1001 1000 1001 1001 1003 1003 1002 1002 1003 1004 1005 1003 1003 1002 1003 1003 1003 1003 1003 1004 1004 1004 1004 1003 1004 1003 1003 1002 1004 1005 1004 1005 1005 1007 1008 1010 1022 1049 1086 1110 1125 1138 1148 1155 1160 1165 1169 1174 1178 1181 1185 1188 1191 1192 1190 1187 1185 1186 1187 1190 1191 1192 1193 1194 1193 1192 1192 1194 1193 1194 1195 1196 1196 1195 1194 1193 1194 1195 1195 1193 1191 1190 1191 1192 1194 1195 1196 1196 1196 1196 1195 1195 1194 1194 1194 1193 1194 1195 1195 1194 1193 1192 1192 1192 1192 1192 1190 1191 1191 1192 1191 1191 1192 1193 1191 1192 1191 1192 1190 1189 1188 1190 1190 1190 1190 1189 1189 1189 1189 1189 1189 1189 1189 1189 1188 1188 1189 1189 1189 1190 1190 1189 1189 1189 1190 1190 1190 1189 1189 1189 1189 1189 1189 1189 1188 1188 1187 1189 1190 1192 1191 1190 1187 1187 1188 1189 1189 1188 1187 1187 1186 1188 1188 1189 1188 1187 1187 1188 1189 1188 1189 1189 1190 1189 1189 1189 1188 1189 1189 1189 1189 1189 1188 1188 1188 1189 1189 1189 1189 1188 1188 1188 1188 1188 1188 1189 1189 1189 1189 1188 1188 1188 1188 1190 1190 1192 1191 1190 1189 1190 1190 1190 1190 1190 1190 1189 1190 1190 1190 1190 1190 1190 1187 1188 1188 1190 1191 1192 1192 1193 1192 1191 1189 1191 1191 1192 1192 1193 1193 1193 1193 1192 1191 1192 1191 1191 1191 1190 1191 1192 1194 1194 1192 1192 1192 1193 1193 1193 1194 1192 1192 1191 1191 1190 1192 1192 1193 1192 1191 1192 1191 1191 1191 1193 1194 1195 1193 1193 1194 1195 1195 1196 1195 1195 1194 1193 1194 1195 1195 1194 1194 1195 1196 1195 1195 1195 1194 1196 1195 1196 1195 1195 1194 1194 1196 1198 1198 1198 1198 1198 1198 1197 1198 1199 1199 1200 1199 1199 1198 1199 1200 1200 1201 1200 1202 1201 1203 1203 1203 1203 1203 1202 1202 1202 1202 1203 1204 1205 1206 1206 1207 1206 1207 1206 1205 1205 1207 1209 1208 1207 1207 1208 1207 1207 1207 1208 1208 1209 1209 1209 1209 1209 1208 1207 1206 1205 1205 1204 1202 1204 1208 1214 1214 1213 1211 1209 1207 1206 1205 1202 1198 1195 1192 1189 1186 1184 1182 1178 1175 1171 1168 1164 1161 1157 1154 1150 1146 1141 1139 1134 1120 1087 1051 1029 1024 1023 1023 1022 1036 0 0 0 1731 1736 1749 1756 1782 1791 1769 1757 1750 1741 1741 1749 1751 1745 1745 1740 1745 1771 0
    0 1148 1148 1146 1147 1150 1149 1150 1147 1145 1144 1146 1150 1149 1150 1149 1155 1155 1159 1158 1161 1163 1166 1167 1173 1177 1180 1180 1186 1190 1191 1190 1199 1208 1213 1214 1228 1252 1315 0 0 0 0 1043 1017 1005 1009 1004 1002 1000 999 998 999 1000 1001 1000 999 1000 1001 1002 1001 1002 1002 1002 1001 1001 1001 1001 1002 1001 1002 1001 1000 1000 999 1001 1002 1002 1001 1001 1003 1003 1003 1002 1002 1002 1002 1003 1004 1005 1005 1004 1003 1003 1003 1005 1005 1005 1004 1005 1007 1006 1005 1005 1006 1008 1009 1023 1050 1088 1111 1126 1138 1147 1154 1159 1164 1168 1173 1178 1181 1184 1187 1189 1190 1189 1187 1185 1186 1188 1190 1190 1191 1193 1194 1193 1192 1193 1194 1193 1193 1195 1197 1198 1198 1196 1194 1194 1195 1196 1195 1194 1192 1193 1192 1193 1194 1196 1196 1195 1195 1195 1195 1195 1194 1193 1193 1194 1195 1195 1194 1193 1192 1192 1192 1192 1192 1190 1191 1191 1192 1191 1191 1191 1193 1192 1192 1192 1192 1191 1190 1189 1191 1191 1190 1190 1190 1190 1189 1189 1189 1189 1188 1187 1188 1188 1189 1190 1190 1190 1189 1189 1189 1189 1190 1190 1189 1188 1189 1190 1191 1190 1190 1190 1190 1189 1189 1187 1188 1190 1192 1192 1190 1188 1187 1187 1188 1189 1189 1187 1188 1188 1188 1187 1187 1187 1186 1185 1187 1189 1189 1190 1189 1190 1189 1188 1187 1187 1189 1190 1191 1189 1189 1187 1188 1189 1189 1190 1189 1189 1188 1189 1188 1188 1188 1189 1189 1189 1188 1188 1188 1189 1188 1189 1189 1190 1190 1190 1188 1188 1188 1188 1190 1191 1190 1190 1189 1190 1189 1190 1192 1192 1192 1189 1189 1189 1189 1191 1191 1192 1192 1193 1191 1190 1190 1191 1191 1192 1192 1192 1192 1193 1193 1192 1191 1190 1190 1191 1190 1190 1191 1193 1193 1193 1194 1194 1194 1194 1194 1195 1194 1193 1192 1192 1192 1193 1193 1194 1195 1194 1194 1193 1193 1192 1194 1194 1196 1195 1195 1195 1195 1195 1196 1196 1195 1195 1194 1195 1195 1194 1193 1194 1194 1195 1194 1194 1194 1194 1195 1195 1195 1195 1195 1195 1195 1196 1197 1197 1197 1199 1198 1198 1198 1199 1199 1200 1201 1200 1199 1199 1200 1202 1202 1203 1202 1202 1202 1204 1204 1205 1204 1204 1203 1203 1203 1202 1203 1204 1205 1206 1207 1208 1207 1208 1207 1206 1205 1206 1208 1208 1208 1208 1208 1207 1207 1207 1208 1208 1209 1209 1210 1210 1209 1208 1208 1207 1206 1205 1205 1203 1204 1208 1213 1214 1213 1210 1208 1207 1206 1204 1200 1197 1194 1192 1189 1186 1183 1181 1178 1175 1172 1169 1165 1161 1158 1155 1151 1147 1141 1139 1134 1120 1086 1050 1028 1025 1022 1022 1020 1023 0 0 0 0 1725 1728 1744 1762 1751 1757 1748 1748 1753 1750 1750 1749 1749 1749 1751 1771 1760 0
    0 1141 1143 1143 1143 1147 1148 1148 1145 1145 1146 1148 1149 1150 1151 1152 1155 1155 1158 1158 1161 1162 1165 1164 1168 1172 1176 1180 1185 1190 1192 1192 1199 1204 1210 1212 1223 1244 1297 1346 1376 0 0 1037 1029 1013 1011 1004 1001 1000 999 998 999 1000 1000 1000 999 1000 1000 1001 1000 1001 1001 1002 1001 1002 1001 1002 1002 1002 1002 1001 1001 1000 1000 1002 1002 1001 1000 1002 1003 1004 1003 1003 1003 1002 1002 1002 1003 1005 1005 1005 1003 1004 1003 1005 1006 1006 1006 1007 1008 1007 1005 1006 1007 1009 1009 1023 1050 1089 1113 1127 1137 1146 1152 1159 1163 1169 1174 1178 1181 1184 1188 1190 1190 1189 1187 1186 1188 1190 1191 1189 1190 1192 1194 1194 1193 1193 1194 1195 1195 1195 1196 1197 1198 1197 1195 1194 1195 1197 1199 1202 1201 1196 1191 1190 1191 1194 1195 1196 1195 1195 1194 1194 1193 1192 1193 1194 1196 1195 1194 1193 1193 1193 1193 1192 1192 1191 1192 1191 1192 1190 1189 1190 1191 1191 1191 1192 1192 1191 1190 1188 1188 1189 1189 1190 1190 1191 1190 1189 1190 1190 1189 1189 1188 1189 1188 1189 1189 1191 1189 1189 1188 1189 1189 1189 1189 1188 1189 1190 1191 1191 1191 1190 1189 1188 1188 1188 1188 1190 1193 1193 1191 1189 1188 1187 1187 1187 1188 1188 1188 1188 1188 1187 1188 1188 1187 1186 1188 1188 1190 1190 1190 1190 1190 1189 1188 1189 1191 1190 1191 1189 1190 1188 1189 1189 1190 1191 1191 1190 1190 1190 1189 1189 1189 1190 1189 1189 1187 1188 1189 1190 1190 1189 1188 1189 1190 1190 1189 1188 1188 1188 1191 1191 1191 1191 1190 1191 1190 1190 1192 1192 1193 1190 1191 1189 1190 1190 1192 1192 1193 1192 1192 1190 1190 1190 1191 1192 1194 1193 1193 1192 1192 1191 1191 1191 1191 1191 1191 1191 1193 1193 1194 1193 1193 1193 1193 1193 1194 1193 1193 1190 1190 1191 1193 1194 1193 1194 1194 1193 1192 1192 1192 1193 1193 1194 1196 1196 1195 1193 1193 1193 1194 1193 1194 1195 1196 1194 1193 1193 1193 1194 1193 1193 1194 1194 1195 1195 1195 1194 1193 1194 1195 1197 1197 1197 1197 1195 1196 1198 1198 1198 1197 1197 1197 1198 1199 1198 1197 1198 1201 1202 1201 1201 1203 1202 1202 1203 1204 1204 1204 1204 1203 1201 1201 1201 1203 1204 1205 1205 1205 1206 1205 1205 1206 1206 1207 1206 1208 1207 1208 1208 1209 1208 1208 1208 1209 1207 1208 1209 1210 1208 1208 1207 1207 1205 1205 1204 1205 1203 1204 1207 1212 1213 1213 1210 1207 1206 1205 1203 1199 1195 1192 1191 1189 1185 1181 1179 1177 1174 1171 1168 1164 1160 1156 1154 1152 1148 1143 1139 1135 1120 1086 1051 1030 1025 1021 1021 1021 1021 0 0 0 0 1719 1733 1746 1749 1730 1732 1740 1743 1745 1760 1758 1748 1753 1757 1769 1758 1723 0
    0 1135 1141 1140 1142 1140 1142 1142 1143 1145 1148 1149 1149 1150 1154 1155 1153 1151 1153 1154 1158 1160 1163 1162 1169 1174 1180 1181 1186 1187 1191 1193 1201 1203 1205 1208 1221 1233 1262 1332 1375 0 0 1055 1036 1018 1012 1004 1002 1000 1001 1000 1000 999 999 999 999 1000 1000 1000 1000 1001 1000 1001 999 1001 1002 1003 1002 1001 1001 1001 1001 1000 1000 1001 1001 1002 1002 1003 1003 1003 1003 1003 1003 1003 1003 1003 1004 1006 1006 1005 1003 1004 1003 1005 1005 1006 1007 1007 1007 1006 1004 1005 1005 1008 1010 1025 1052 1090 1113 1126 1136 1143 1151 1158 1163 1168 1174 1179 1182 1184 1189 1190 1192 1190 1188 1186 1188 1190 1191 1189 1190 1191 1192 1193 1192 1194 1194 1195 1195 1195 1194 1195 1197 1197 1196 1195 1195 1199 1204 1210 1201 1188 1183 1186 1190 1192 1194 1195 1195 1194 1194 1194 1194 1193 1194 1194 1194 1194 1193 1194 1194 1194 1193 1192 1192 1191 1192 1192 1192 1190 1189 1189 1191 1191 1191 1192 1192 1191 1190 1189 1189 1189 1188 1190 1191 1191 1191 1189 1190 1190 1190 1189 1189 1189 1188 1188 1188 1189 1188 1189 1188 1189 1189 1189 1189 1189 1190 1190 1191 1190 1190 1190 1190 1188 1187 1188 1189 1190 1191 1190 1189 1187 1187 1187 1188 1189 1189 1188 1188 1188 1188 1188 1189 1189 1188 1187 1188 1189 1189 1190 1190 1191 1190 1190 1188 1190 1190 1191 1191 1191 1191 1190 1190 1190 1191 1192 1192 1191 1190 1190 1189 1190 1189 1191 1189 1190 1188 1189 1189 1190 1190 1189 1189 1189 1189 1190 1190 1189 1188 1189 1190 1191 1190 1190 1190 1191 1190 1190 1192 1192 1192 1191 1191 1191 1192 1192 1192 1190 1190 1190 1191 1191 1191 1191 1191 1192 1192 1193 1191 1192 1191 1193 1192 1192 1190 1191 1191 1192 1193 1193 1193 1193 1193 1193 1193 1194 1195 1194 1193 1191 1192 1193 1194 1193 1192 1193 1195 1195 1194 1193 1194 1194 1194 1195 1196 1196 1195 1194 1194 1195 1196 1195 1195 1195 1197 1196 1195 1194 1194 1196 1195 1196 1194 1196 1196 1197 1197 1196 1195 1196 1198 1202 1207 1208 1203 1198 1195 1198 1199 1199 1198 1198 1198 1199 1200 1200 1199 1200 1202 1203 1203 1203 1204 1204 1204 1205 1204 1204 1204 1204 1204 1202 1201 1202 1203 1205 1206 1207 1206 1207 1207 1208 1207 1207 1208 1207 1207 1206 1208 1208 1209 1208 1209 1209 1209 1208 1208 1208 1209 1209 1208 1207 1207 1206 1205 1204 1205 1204 1206 1208 1212 1214 1214 1211 1209 1206 1206 1203 1199 1194 1192 1190 1188 1184 1180 1179 1177 1174 1171 1168 1164 1159 1155 1154 1152 1147 1144 1140 1137 1121 1086 1052 1030 1026 1021 1021 1021 1027 0 0 1770 0 1743 1749 1753 1737 1721 1723 1734 1733 1744 1755 1768 1757 1750 1753 1769 1739 0 0
    0 1135 1138 1138 1140 1138 1139 1138 1142 1144 1148 1148 1147 1150 1153 1155 1151 1150 1151 1152 1155 1158 1164 1163 1169 1170 1177 1178 1184 1185 1189 1192 1199 1199 1201 1208 1219 1228 1244 1301 1363 1383 0 1091 1051 1021 1013 1005 1000 998 1000 1000 1000 998 999 999 999 999 999 999 999 1000 1000 1000 999 1000 1001 1002 1001 1000 1000 1001 1001 1001 1002 1002 1001 1002 1003 1004 1003 1002 1002 1003 1003 1003 1003 1004 1003 1005 1004 1003 1001 1003 1003 1005 1004 1004 1006 1007 1006 1005 1004 1006 1007 1010 1012 1026 1053 1089 1112 1125 1137 1144 1151 1157 1162 1168 1172 1178 1181 1184 1189 1191 1193 1190 1189 1187 1189 1190 1191 1189 1189 1191 1190 1192 1193 1194 1194 1193 1194 1194 1195 1194 1195 1195 1195 1195 1197 1201 1210 1214 1195 1181 1179 1184 1190 1192 1193 1194 1195 1195 1194 1193 1194 1193 1194 1194 1195 1195 1194 1194 1193 1194 1193 1194 1192 1193 1193 1193 1191 1190 1190 1190 1191 1190 1190 1191 1191 1190 1190 1190 1189 1189 1188 1190 1190 1190 1191 1189 1190 1190 1190 1190 1189 1189 1188 1187 1187 1188 1188 1188 1187 1187 1188 1189 1190 1190 1190 1189 1190 1190 1190 1188 1188 1188 1188 1188 1188 1189 1189 1189 1188 1188 1189 1188 1188 1188 1189 1189 1188 1187 1188 1189 1190 1190 1189 1187 1188 1188 1189 1190 1190 1190 1190 1189 1189 1190 1191 1191 1191 1191 1191 1190 1190 1190 1191 1192 1191 1191 1190 1190 1190 1190 1189 1189 1189 1191 1191 1191 1190 1190 1191 1190 1190 1190 1190 1190 1191 1191 1191 1190 1190 1190 1191 1191 1191 1191 1191 1190 1190 1190 1190 1190 1190 1191 1193 1192 1193 1191 1191 1190 1191 1191 1191 1191 1191 1193 1194 1195 1193 1192 1190 1191 1192 1192 1191 1191 1192 1194 1194 1194 1193 1191 1190 1192 1192 1193 1193 1193 1192 1192 1192 1193 1194 1193 1192 1193 1195 1194 1192 1192 1193 1193 1193 1194 1194 1194 1194 1194 1195 1195 1194 1195 1196 1195 1196 1194 1195 1195 1195 1196 1195 1196 1196 1197 1197 1197 1197 1196 1198 1188 1186 1184 1204 1229 1215 1202 1195 1197 1198 1198 1197 1197 1197 1198 1200 1200 1198 1198 1200 1201 1201 1202 1202 1203 1203 1205 1203 1203 1203 1205 1205 1203 1202 1203 1203 1204 1205 1206 1205 1207 1209 1209 1208 1207 1209 1208 1207 1205 1207 1207 1208 1207 1208 1208 1209 1208 1208 1208 1209 1208 1208 1207 1206 1205 1204 1204 1204 1203 1205 1208 1212 1213 1212 1211 1209 1207 1206 1203 1200 1196 1193 1190 1187 1184 1181 1181 1177 1175 1171 1169 1165 1161 1156 1154 1152 1148 1143 1140 1137 1120 1085 1051 1031 1025 1020 1020 1021 0 0 0 0 0 1751 1758 1745 1734 1719 1730 1739 1749 1741 1759 1776 1749 1741 1765 1752 1775 1731 0
    0 1135 1139 1139 1140 1137 1137 1135 1138 1141 1145 1144 1143 1145 1148 1150 1148 1148 1150 1152 1155 1157 1162 1162 1171 1172 1178 1177 1183 1186 1188 1191 1195 1199 1201 1206 1217 1224 1236 1258 1333 1378 1361 0 1048 1021 1012 1007 1001 1001 1001 1001 1000 1000 1000 999 999 999 1000 1000 1000 1000 1001 1000 1000 1000 1001 1002 1002 1001 1001 1002 1001 1002 1002 1002 1001 1001 1001 1003 1003 1002 1001 1002 1003 1003 1003 1005 1004 1004 1002 1002 1001 1003 1004 1005 1004 1003 1004 1005 1006 1006 1005 1006 1007 1011 1012 1026 1054 1089 1111 1125 1138 1145 1151 1157 1162 1167 1172 1177 1181 1184 1188 1191 1193 1190 1188 1185 1186 1188 1190 1190 1191 1191 1191 1192 1194 1196 1195 1193 1193 1194 1196 1195 1195 1194 1195 1194 1196 1201 1211 1214 1193 1180 1181 1186 1192 1193 1194 1195 1195 1195 1194 1195 1195 1195 1195 1195 1195 1194 1194 1194 1193 1193 1193 1193 1192 1192 1192 1193 1192 1191 1191 1192 1193 1192 1191 1191 1191 1191 1191 1192 1191 1190 1189 1190 1190 1190 1191 1190 1190 1189 1188 1188 1189 1190 1191 1189 1188 1187 1188 1187 1188 1188 1190 1190 1190 1190 1190 1190 1190 1191 1190 1189 1190 1189 1190 1190 1190 1190 1189 1188 1187 1187 1188 1188 1188 1189 1189 1189 1188 1188 1188 1189 1189 1188 1188 1188 1189 1189 1190 1190 1190 1189 1189 1189 1189 1189 1190 1191 1192 1191 1190 1189 1189 1189 1189 1191 1191 1191 1190 1190 1190 1190 1189 1189 1189 1192 1191 1192 1190 1190 1189 1190 1190 1190 1190 1190 1189 1191 1192 1191 1190 1190 1190 1191 1190 1190 1191 1191 1190 1190 1189 1190 1190 1191 1191 1192 1191 1191 1191 1192 1190 1190 1189 1191 1191 1192 1191 1192 1191 1191 1190 1190 1191 1191 1190 1191 1192 1194 1193 1193 1192 1192 1191 1191 1192 1194 1193 1194 1193 1194 1195 1194 1193 1192 1192 1193 1195 1194 1193 1193 1194 1194 1194 1195 1195 1195 1195 1196 1196 1196 1195 1196 1197 1196 1195 1194 1196 1196 1195 1196 1194 1196 1196 1198 1197 1198 1197 1197 1200 1190 0 1182 1200 1255 1234 1209 1197 1197 1198 1197 1198 1198 1199 1199 1201 1203 1201 1200 1200 1201 1201 1202 1201 1203 1203 1205 1203 1203 1203 1204 1205 1205 1203 1203 1204 1205 1206 1207 1205 1207 1208 1210 1209 1207 1208 1208 1208 1207 1207 1207 1207 1207 1207 1208 1209 1210 1209 1209 1209 1209 1209 1208 1207 1207 1206 1205 1205 1204 1205 1208 1212 1213 1213 1212 1211 1209 1206 1203 1201 1198 1194 1191 1187 1184 1181 1180 1177 1175 1171 1169 1166 1163 1158 1155 1151 1147 1143 1139 1136 1120 1083 1049 1030 1024 1020 1019 1020 1026 0 0 1728 1734 1754 1752 1746 1753 1747 1739 1751 1761 1751 1749 1776 0 1744 1768 1761 1766 1760 0
    0 1135 1137 1141 1141 1139 1135 1132 1137 1140 1145 1142 1141 1143 1146 1149 1148 1148 1149 1151 1154 1157 1163 1164 1169 1168 1173 1174 1179 1185 1187 1191 1193 1200 1203 1208 1216 1221 1228 1239 1266 0 0 0 1049 1021 1016 1009 1003 1002 1001 1000 999 1000 1000 999 999 1000 1001 1001 1001 1000 1001 1001 1000 1000 1000 1001 1002 1002 1003 1002 1001 1002 1002 1003 1002 1002 1002 1003 1002 1002 1001 1002 1002 1002 1003 1003 1003 1003 1002 1003 1002 1004 1004 1004 1003 1002 1004 1005 1007 1007 1006 1007 1008 1010 1012 1026 1054 1088 1110 1125 1137 1145 1151 1157 1163 1166 1171 1175 1180 1183 1188 1190 1192 1190 1187 1185 1186 1188 1190 1191 1192 1191 1191 1193 1196 1196 1195 1194 1194 1195 1196 1195 1195 1194 1195 1194 1196 1200 1208 1216 1210 1198 1193 1191 1193 1195 1196 1196 1195 1195 1195 1196 1195 1195 1195 1195 1194 1194 1193 1193 1193 1193 1193 1193 1192 1192 1193 1194 1193 1193 1191 1191 1191 1190 1191 1191 1191 1191 1191 1190 1190 1189 1190 1191 1190 1190 1190 1190 1189 1188 1188 1188 1188 1190 1190 1189 1189 1188 1189 1188 1188 1189 1190 1191 1191 1190 1190 1190 1190 1190 1190 1189 1189 1189 1190 1190 1189 1190 1189 1190 1189 1188 1188 1188 1188 1189 1189 1190 1189 1189 1188 1189 1189 1189 1188 1188 1188 1187 1188 1189 1191 1190 1189 1188 1189 1190 1191 1191 1191 1189 1189 1188 1189 1190 1190 1191 1191 1190 1189 1189 1189 1189 1189 1189 1190 1192 1192 1192 1190 1190 1190 1190 1190 1190 1190 1189 1189 1190 1191 1192 1191 1190 1190 1189 1189 1189 1190 1190 1190 1189 1189 1190 1190 1191 1191 1191 1191 1192 1192 1192 1192 1191 1190 1190 1190 1191 1192 1193 1193 1192 1191 1190 1190 1191 1191 1191 1192 1192 1192 1191 1191 1192 1192 1191 1192 1192 1192 1192 1192 1194 1194 1193 1192 1191 1192 1192 1192 1192 1192 1194 1196 1195 1195 1194 1195 1195 1195 1195 1196 1196 1195 1195 1196 1195 1195 1194 1195 1195 1194 1194 1193 1194 1195 1196 1196 1195 1194 1194 1197 1189 1185 1183 1202 1263 1237 1209 1197 1197 1197 1197 1197 1197 1199 1198 1199 1198 1199 1199 1200 1200 1200 1200 1200 1201 1202 1203 1203 1203 1203 1204 1205 1205 1205 1205 1206 1206 1207 1207 1206 1206 1208 1209 1209 1207 1208 1207 1207 1207 1208 1208 1207 1207 1206 1207 1208 1211 1210 1210 1210 1209 1208 1208 1208 1207 1206 1205 1204 1203 1204 1207 1212 1214 1213 1211 1211 1209 1206 1202 1200 1198 1194 1190 1186 1185 1182 1179 1177 1174 1171 1168 1165 1162 1158 1155 1150 1146 1141 1139 1136 1119 1085 1050 1030 1024 1021 1020 1020 0 0 0 1723 1736 1736 1744 1748 1761 1751 1745 1749 1761 1740 1740 1749 1767 1752 1757 1778 1762 1765 0
    0 1136 1141 1144 1143 1139 1136 1135 1135 1138 1142 1142 1140 1140 1143 1150 1149 1149 1150 1151 1155 1155 1161 1160 1164 1164 1171 1175 1182 1188 1188 1190 1192 1199 1203 1208 1216 1218 1227 1232 1247 1241 0 0 1061 1018 1011 1010 1005 1004 1001 1000 998 999 999 999 999 1000 1001 1000 1000 1000 1001 1000 1000 1000 1000 1001 1002 1002 1002 1002 1001 1001 1001 1001 1001 1001 1002 1001 1001 1001 1002 1001 1003 1003 1004 1003 1002 1002 1002 1003 1004 1005 1005 1004 1005 1003 1004 1003 1005 1007 1007 1007 1007 1008 1011 1026 1055 1089 1111 1125 1137 1145 1151 1156 1163 1167 1172 1175 1180 1183 1187 1190 1191 1190 1187 1185 1185 1187 1189 1191 1192 1192 1193 1194 1196 1197 1196 1196 1195 1196 1196 1195 1196 1195 1195 1194 1195 1198 1202 1206 1205 1200 1194 1191 1192 1195 1197 1197 1195 1195 1195 1195 1196 1196 1196 1195 1194 1193 1193 1193 1194 1194 1193 1192 1192 1193 1193 1194 1193 1192 1191 1191 1192 1192 1192 1191 1192 1192 1192 1190 1190 1189 1190 1191 1191 1190 1189 1190 1189 1189 1188 1188 1189 1190 1190 1190 1190 1190 1190 1190 1190 1191 1192 1192 1191 1191 1190 1191 1190 1190 1190 1190 1190 1189 1189 1189 1190 1191 1190 1190 1190 1188 1187 1188 1188 1189 1188 1189 1189 1189 1189 1190 1189 1189 1187 1189 1188 1188 1188 1189 1190 1190 1190 1190 1190 1190 1190 1191 1191 1190 1189 1189 1189 1189 1190 1191 1192 1190 1189 1189 1189 1189 1190 1191 1190 1191 1191 1192 1191 1191 1190 1191 1191 1192 1191 1189 1187 1187 1189 1192 1191 1191 1189 1190 1189 1190 1190 1190 1190 1190 1190 1190 1190 1190 1190 1191 1190 1190 1190 1191 1192 1192 1191 1191 1190 1191 1191 1192 1192 1193 1192 1192 1191 1191 1191 1192 1192 1192 1191 1191 1193 1194 1194 1192 1193 1193 1193 1192 1192 1193 1194 1194 1193 1192 1193 1193 1192 1193 1194 1195 1197 1196 1195 1196 1197 1197 1196 1196 1196 1197 1197 1196 1196 1195 1195 1195 1195 1195 1195 1195 1195 1194 1194 1195 1195 1195 1194 1194 1194 1200 1208 1218 1237 1252 1223 1206 1197 1198 1198 1198 1200 1200 1201 1200 1200 1199 1201 1200 1201 1201 1200 1199 1200 1202 1202 1202 1203 1203 1204 1203 1204 1204 1205 1206 1207 1208 1208 1208 1207 1206 1207 1208 1209 1208 1208 1208 1209 1210 1210 1210 1210 1209 1208 1209 1210 1212 1211 1211 1209 1209 1208 1208 1208 1209 1208 1206 1204 1203 1204 1207 1212 1216 1214 1211 1210 1208 1205 1201 1198 1197 1194 1191 1186 1185 1181 1179 1178 1175 1172 1166 1164 1160 1157 1155 1150 1146 1143 1140 1137 1120 1085 1049 1029 1025 1023 1022 1020 0 0 1746 1747 1741 1735 1737 1744 1757 1747 1748 1742 1745 1725 1731 1764 1768 1769 1761 1747 1773 1766 0
    0 1135 1137 1140 1141 1140 1136 1136 1133 1136 1140 1144 1142 1142 1143 1149 1151 1151 1150 1151 1154 1157 1161 1160 1162 1164 1169 1172 1178 1183 1184 1188 1191 1197 1200 1210 1221 1226 1232 1235 1242 1239 1226 1100 1060 1027 1015 1011 1004 1002 1000 1000 999 999 999 998 998 999 999 999 999 999 1000 1000 999 999 1000 1001 1002 1002 1001 1001 1000 1000 1000 1001 1001 1002 1003 1001 1000 1000 1002 1001 1003 1003 1004 1002 1002 1002 1004 1004 1004 1003 1005 1004 1004 1004 1004 1003 1004 1004 1006 1006 1006 1006 1011 1027 1056 1090 1111 1123 1135 1144 1151 1156 1161 1166 1171 1175 1180 1184 1185 1188 1191 1192 1188 1187 1186 1188 1189 1191 1193 1194 1193 1194 1195 1195 1196 1196 1196 1196 1195 1195 1196 1197 1196 1195 1195 1196 1197 1197 1199 1198 1194 1191 1193 1195 1196 1195 1195 1196 1196 1195 1195 1196 1196 1194 1193 1193 1193 1193 1193 1194 1194 1193 1192 1193 1194 1195 1192 1192 1191 1191 1190 1190 1191 1191 1192 1192 1192 1189 1190 1189 1192 1191 1192 1191 1190 1189 1188 1189 1189 1189 1189 1188 1188 1189 1192 1191 1190 1190 1189 1190 1191 1192 1191 1190 1189 1189 1188 1188 1188 1189 1189 1188 1187 1187 1189 1189 1190 1190 1191 1188 1187 1188 1189 1189 1189 1189 1190 1191 1191 1191 1190 1190 1189 1188 1187 1187 1188 1188 1190 1190 1191 1191 1190 1190 1189 1191 1191 1190 1189 1189 1189 1189 1190 1191 1191 1189 1188 1188 1188 1189 1189 1191 1190 1189 1190 1191 1191 1190 1191 1191 1191 1191 1191 1190 1187 1186 1187 1190 1192 1191 1191 1190 1190 1189 1190 1190 1191 1191 1192 1191 1191 1190 1191 1191 1191 1191 1191 1192 1194 1194 1193 1192 1192 1192 1192 1193 1192 1193 1193 1194 1193 1191 1191 1191 1192 1192 1192 1191 1192 1192 1193 1192 1193 1191 1192 1191 1192 1192 1193 1193 1194 1192 1193 1193 1193 1192 1193 1195 1196 1194 1195 1196 1195 1196 1196 1196 1195 1195 1196 1195 1194 1193 1194 1195 1195 1196 1196 1196 1196 1195 1195 1194 1195 1195 1194 1195 1195 1197 1202 1208 1216 1216 1208 1201 1198 1197 1197 1197 1199 1199 1200 1199 1200 1198 1200 1200 1201 1201 1201 1200 1200 1200 1202 1203 1204 1204 1204 1204 1204 1203 1204 1205 1207 1206 1206 1206 1207 1207 1208 1207 1209 1207 1208 1208 1208 1208 1209 1209 1210 1209 1208 1208 1208 1210 1210 1210 1209 1208 1208 1208 1207 1208 1207 1206 1204 1202 1204 1208 1213 1215 1213 1211 1209 1208 1204 1200 1197 1196 1194 1191 1187 1185 1182 1179 1178 1175 1171 1166 1163 1159 1156 1154 1150 1147 1143 1139 1136 1119 1085 1049 1029 1025 1023 1023 1021 0 0 1747 1750 1745 1738 1733 1742 1755 1756 1755 1748 1736 1735 1749 1750 1764 1771 1749 1767 1767 1767 0
    0 1132 1133 1134 1134 1135 1135 1136 1133 1135 1136 1140 1139 1141 1143 1146 1147 1147 1149 1151 1155 1155 1158 1159 1163 1165 1168 1171 1176 1181 1184 1187 1188 1193 1197 1208 1218 1224 1233 1236 1241 1239 1232 0 1050 1024 1015 1009 1002 1001 1000 1001 999 998 998 999 998 998 999 998 998 998 999 999 999 1001 1002 1003 1002 1002 1001 1001 1001 1000 1000 1000 1001 1001 1002 1002 1002 1000 1002 1001 1003 1003 1004 1003 1003 1002 1004 1004 1004 1003 1005 1005 1006 1005 1003 1002 1002 1003 1006 1005 1005 1006 1011 1027 1055 1090 1110 1122 1134 1144 1151 1155 1160 1166 1171 1176 1179 1183 1185 1189 1191 1192 1188 1186 1185 1186 1188 1190 1192 1194 1194 1193 1193 1194 1196 1197 1196 1195 1195 1196 1197 1198 1197 1195 1195 1195 1195 1194 1194 1195 1194 1193 1194 1195 1195 1194 1195 1196 1196 1194 1196 1196 1195 1194 1193 1193 1192 1193 1193 1192 1193 1193 1192 1192 1193 1193 1191 1191 1191 1191 1191 1190 1190 1191 1193 1193 1192 1190 1190 1190 1192 1192 1193 1191 1191 1190 1189 1189 1189 1190 1189 1189 1190 1190 1191 1189 1190 1190 1191 1191 1190 1191 1190 1190 1189 1189 1188 1189 1189 1190 1189 1188 1186 1187 1189 1190 1191 1189 1189 1187 1188 1189 1190 1189 1189 1190 1190 1190 1190 1190 1191 1190 1189 1187 1188 1188 1188 1188 1189 1188 1189 1190 1190 1189 1189 1191 1191 1191 1189 1190 1189 1189 1190 1190 1190 1188 1188 1188 1189 1190 1189 1191 1190 1190 1189 1190 1190 1190 1190 1191 1191 1191 1191 1191 1188 1186 1187 1190 1192 1192 1193 1193 1191 1190 1189 1190 1191 1192 1192 1191 1190 1190 1190 1191 1191 1191 1191 1191 1191 1193 1191 1192 1192 1193 1191 1193 1191 1192 1192 1193 1192 1192 1192 1192 1192 1192 1193 1193 1193 1193 1195 1193 1194 1192 1194 1193 1192 1192 1194 1195 1196 1195 1194 1194 1194 1194 1195 1195 1195 1194 1195 1197 1195 1196 1196 1197 1195 1195 1195 1195 1194 1194 1195 1196 1196 1196 1197 1196 1197 1196 1197 1196 1196 1197 1197 1196 1196 1196 1199 1199 1202 1201 1200 1200 1199 1199 1198 1198 1199 1198 1199 1199 1200 1200 1201 1202 1202 1203 1203 1203 1202 1201 1202 1204 1205 1205 1204 1204 1203 1203 1202 1203 1205 1205 1205 1205 1206 1207 1208 1208 1208 1207 1208 1209 1210 1209 1208 1208 1209 1209 1208 1208 1208 1209 1209 1210 1209 1209 1208 1209 1208 1208 1207 1207 1205 1203 1205 1209 1214 1214 1212 1212 1209 1207 1203 1200 1198 1196 1193 1190 1187 1186 1183 1180 1177 1173 1169 1166 1163 1159 1155 1154 1150 1148 1144 1140 1136 1118 1084 1049 1030 1025 1024 1024 1023 0 0 0 1743 1742 1742 1741 1725 1759 1764 1758 1749 1751 1748 1737 1737 1743 1753 1767 1758 1772 1768 0
    0 1131 1131 1130 1129 1131 1134 1137 1135 1135 1135 1140 1141 1144 1143 1144 1145 1143 1148 1150 1155 1156 1158 1161 1166 1170 1171 1174 1177 1180 1182 1186 1187 1193 1199 1212 1219 1224 1231 1235 1234 1233 1226 0 1064 1033 1018 1008 1001 1001 1001 1002 1000 999 999 1000 999 1000 999 999 998 998 998 998 998 1000 1001 1002 1002 1002 1000 1001 1001 1002 1001 1001 1002 1003 1003 1002 1001 1000 1001 1002 1003 1003 1004 1004 1004 1002 1004 1004 1004 1003 1004 1004 1004 1004 1005 1004 1004 1004 1005 1005 1006 1007 1011 1026 1054 1088 1107 1120 1133 1143 1150 1155 1160 1165 1169 1175 1180 1184 1186 1190 1192 1192 1189 1185 1185 1186 1189 1190 1192 1193 1193 1193 1193 1194 1195 1196 1197 1196 1196 1196 1196 1197 1196 1195 1195 1195 1196 1194 1194 1195 1195 1194 1194 1195 1195 1194 1196 1196 1196 1196 1196 1195 1193 1193 1193 1194 1194 1195 1194 1192 1193 1193 1193 1191 1192 1192 1191 1191 1191 1190 1191 1189 1190 1191 1192 1192 1191 1190 1191 1191 1192 1193 1193 1192 1190 1190 1189 1190 1189 1189 1188 1189 1190 1190 1190 1189 1189 1189 1191 1191 1191 1189 1189 1190 1189 1188 1188 1188 1188 1190 1190 1189 1187 1188 1189 1190 1190 1188 1187 1186 1187 1189 1190 1190 1190 1189 1189 1189 1189 1189 1190 1190 1190 1188 1188 1188 1188 1188 1188 1186 1188 1188 1189 1188 1188 1190 1191 1192 1190 1189 1189 1189 1190 1189 1189 1188 1188 1189 1190 1190 1190 1191 1190 1190 1189 1189 1190 1191 1191 1190 1190 1189 1190 1190 1190 1188 1188 1190 1191 1191 1192 1192 1191 1188 1189 1190 1192 1192 1193 1192 1192 1192 1191 1191 1191 1192 1193 1193 1192 1190 1190 1191 1191 1191 1190 1190 1190 1191 1192 1192 1192 1193 1193 1192 1192 1192 1193 1192 1192 1192 1194 1193 1194 1193 1193 1193 1193 1192 1192 1193 1194 1194 1194 1194 1193 1193 1194 1195 1196 1194 1196 1195 1194 1194 1194 1196 1195 1194 1195 1194 1194 1193 1196 1196 1196 1196 1196 1196 1196 1197 1199 1197 1197 1196 1197 1196 1196 1195 1196 1194 1195 1195 1197 1199 1199 1198 1198 1196 1196 1196 1197 1198 1199 1199 1200 1201 1203 1203 1203 1202 1201 1200 1202 1204 1205 1204 1203 1203 1202 1202 1202 1202 1203 1203 1204 1204 1205 1207 1208 1207 1206 1205 1206 1207 1209 1207 1207 1207 1208 1207 1207 1207 1207 1208 1208 1209 1210 1209 1209 1209 1208 1208 1206 1205 1205 1204 1206 1210 1213 1213 1211 1211 1210 1207 1204 1201 1198 1195 1192 1190 1188 1185 1183 1179 1176 1171 1169 1166 1163 1158 1154 1152 1148 1146 1143 1141 1136 1118 1083 1049 1031 1026 1023 1023 1025 0 0 0 1753 1738 1731 1724 1753 1744 1760 1751 1750 1748 1762 1742 1733 1741 1759 1760 1752 1756 1790 0
    0 1128 1129 1131 1129 1131 1133 1137 1134 1133 1130 1135 1138 1141 1142 1144 1146 1144 1147 1149 1155 1155 1157 1159 1165 1167 1171 1174 1180 1182 1186 1189 1190 1193 1200 1209 1214 1218 1224 1231 1231 1233 1228 1208 0 1043 1022 1009 1002 1001 1000 1001 999 999 999 1000 1000 1000 1000 1000 1000 1000 999 999 999 1000 1001 1002 1002 1002 1000 1000 1000 1001 1000 1000 1001 1002 1003 1002 1001 1001 1002 1003 1003 1003 1004 1004 1004 1003 1004 1003 1003 1003 1004 1004 1004 1004 1005 1004 1004 1005 1005 1004 1004 1005 1009 1025 1054 1087 1107 1121 1136 1143 1149 1155 1160 1165 1169 1175 1179 1184 1186 1190 1193 1190 1187 1183 1185 1186 1189 1190 1192 1192 1193 1193 1193 1195 1196 1198 1197 1197 1197 1197 1196 1197 1197 1195 1195 1196 1197 1195 1194 1193 1194 1194 1194 1194 1194 1196 1197 1197 1196 1196 1195 1193 1191 1192 1193 1194 1194 1195 1195 1193 1194 1192 1193 1192 1192 1192 1191 1191 1191 1192 1192 1192 1190 1190 1191 1191 1191 1192 1192 1192 1192 1192 1193 1191 1190 1190 1189 1190 1189 1189 1188 1189 1191 1191 1190 1188 1190 1190 1192 1191 1191 1189 1188 1189 1189 1190 1188 1189 1189 1190 1190 1191 1189 1189 1189 1189 1189 1187 1187 1187 1188 1190 1191 1191 1190 1188 1188 1188 1188 1188 1189 1190 1190 1189 1189 1189 1189 1189 1189 1187 1188 1189 1190 1189 1189 1190 1191 1191 1189 1188 1189 1188 1189 1189 1189 1189 1189 1189 1190 1191 1191 1191 1191 1190 1188 1189 1190 1191 1191 1191 1191 1190 1191 1191 1190 1189 1190 1192 1191 1192 1191 1192 1191 1190 1189 1190 1191 1191 1190 1190 1191 1192 1192 1192 1190 1191 1191 1192 1190 1189 1190 1191 1191 1190 1191 1191 1191 1191 1192 1192 1193 1194 1194 1193 1192 1192 1192 1194 1195 1194 1194 1193 1194 1194 1193 1194 1193 1193 1194 1194 1195 1195 1195 1196 1194 1195 1195 1196 1197 1195 1196 1195 1195 1194 1195 1196 1195 1195 1195 1194 1194 1194 1196 1196 1196 1196 1196 1197 1197 1199 1200 1198 1197 1196 1195 1195 1195 1196 1196 1195 1195 1196 1197 1198 1198 1198 1198 1198 1198 1198 1199 1199 1200 1200 1201 1202 1203 1203 1202 1201 1201 1201 1202 1203 1204 1204 1203 1203 1202 1203 1203 1204 1203 1204 1205 1206 1206 1207 1207 1208 1207 1207 1206 1208 1209 1208 1208 1208 1209 1208 1208 1208 1208 1208 1209 1209 1211 1210 1209 1210 1210 1209 1207 1206 1205 1204 1206 1210 1213 1213 1211 1211 1209 1207 1204 1201 1198 1195 1191 1189 1188 1186 1183 1181 1177 1172 1170 1168 1164 1159 1156 1154 1150 1147 1145 1142 1138 1118 1083 1048 1030 1025 1022 1022 1025 0 0 1794 1777 1754 1740 1750 1756 1764 1768 1748 1738 1746 1742 1742 1736 1720 1740 1753 1750 1749 1782 0
    0 1131 1132 1133 1133 1134 1134 1137 1135 1134 1131 1136 1138 1140 1140 1143 1147 1148 1149 1151 1154 1157 1158 1160 1164 1166 1171 1176 1182 1182 1186 1189 1192 1196 1201 1212 1216 1222 1224 1230 1231 1237 1231 0 0 1056 1029 1012 1005 1003 1000 1000 998 1000 999 1000 998 998 999 1000 1001 1000 999 999 1000 999 999 1000 1001 1001 1000 1000 999 1000 1001 1001 1002 1003 1003 1002 1001 1002 1002 1003 1002 1003 1004 1005 1004 1004 1003 1003 1001 1001 1002 1004 1004 1005 1005 1005 1005 1005 1004 1003 1002 1003 1007 1024 1055 1088 1108 1123 1136 1144 1149 1154 1159 1166 1170 1176 1180 1185 1187 1191 1192 1189 1188 1185 1187 1187 1189 1190 1191 1193 1193 1193 1194 1195 1195 1196 1196 1198 1198 1197 1195 1197 1197 1196 1195 1195 1197 1195 1194 1193 1194 1193 1193 1193 1194 1197 1197 1197 1195 1195 1194 1193 1192 1192 1194 1194 1194 1194 1194 1193 1194 1192 1194 1192 1193 1191 1191 1191 1191 1191 1192 1192 1191 1191 1190 1190 1190 1191 1193 1192 1191 1191 1190 1190 1188 1190 1189 1188 1188 1189 1189 1188 1190 1190 1190 1190 1191 1190 1190 1189 1189 1188 1187 1188 1188 1190 1189 1189 1189 1189 1190 1190 1190 1189 1188 1189 1188 1187 1187 1187 1188 1189 1191 1190 1189 1187 1188 1189 1190 1189 1188 1188 1190 1191 1190 1189 1189 1190 1191 1190 1190 1190 1191 1190 1189 1189 1190 1190 1190 1188 1188 1188 1189 1189 1190 1190 1189 1188 1189 1190 1191 1190 1191 1189 1189 1188 1190 1192 1192 1191 1190 1189 1190 1191 1190 1190 1190 1191 1191 1190 1191 1191 1191 1191 1192 1191 1190 1190 1190 1191 1191 1191 1191 1191 1191 1192 1192 1192 1191 1190 1191 1191 1191 1191 1192 1191 1191 1191 1192 1193 1193 1193 1192 1192 1191 1191 1192 1193 1194 1192 1192 1191 1192 1192 1192 1193 1193 1194 1194 1194 1193 1194 1195 1195 1193 1192 1193 1194 1195 1194 1196 1194 1195 1194 1195 1194 1194 1193 1196 1194 1195 1193 1194 1194 1195 1196 1195 1197 1198 1198 1198 1197 1197 1195 1194 1194 1195 1195 1195 1195 1195 1196 1197 1197 1198 1198 1198 1198 1199 1199 1200 1199 1200 1201 1202 1201 1202 1202 1201 1200 1200 1200 1201 1202 1203 1203 1204 1204 1204 1203 1203 1204 1203 1204 1206 1207 1208 1208 1207 1208 1208 1207 1206 1205 1207 1207 1208 1208 1210 1208 1209 1208 1208 1207 1208 1209 1210 1209 1208 1209 1209 1208 1207 1206 1206 1204 1206 1210 1213 1213 1211 1210 1209 1208 1205 1201 1197 1194 1192 1190 1188 1185 1182 1179 1177 1173 1171 1167 1163 1159 1156 1153 1148 1145 1144 1142 1138 1117 1080 1044 1027 1022 1021 1022 1028 0 0 1786 1774 1767 1775 1758 1760 1767 1766 1755 1742 1731 1743 1734 1731 1728 1727 1746 1756 1753 1764 0
    0 1131 1131 1134 1133 1134 1132 1133 1132 1134 1135 1137 1137 1135 1137 1140 1145 1147 1147 1150 1152 1157 1159 1162 1163 1162 1166 1171 1176 1180 1187 1193 1194 1196 1201 1210 1215 1222 1226 1234 1237 1244 1236 1219 1148 1061 1027 1011 1006 1003 999 999 998 999 998 999 997 998 999 1000 1000 1000 1000 1001 1000 999 999 1000 1002 1001 1001 1001 999 999 1000 1002 1003 1002 1002 1001 1001 1002 1003 1003 1003 1003 1003 1004 1003 1004 1003 1002 1001 1003 1003 1005 1004 1004 1004 1004 1005 1005 1004 1002 1000 1002 1007 1025 1055 1089 1109 1123 1136 1143 1149 1155 1160 1167 1172 1176 1179 1184 1188 1191 1192 1189 1188 1186 1188 1187 1188 1189 1192 1193 1192 1192 1194 1195 1195 1194 1194 1196 1198 1198 1197 1198 1199 1198 1196 1195 1196 1196 1195 1194 1194 1194 1195 1195 1195 1197 1196 1197 1194 1194 1194 1194 1193 1193 1193 1193 1193 1193 1194 1194 1194 1193 1192 1192 1192 1191 1191 1192 1191 1190 1190 1191 1191 1191 1191 1190 1190 1190 1192 1192 1192 1192 1191 1190 1189 1190 1189 1188 1188 1189 1190 1188 1189 1189 1191 1190 1190 1190 1189 1188 1187 1187 1186 1187 1188 1190 1189 1190 1189 1189 1190 1190 1189 1187 1188 1190 1190 1189 1189 1188 1189 1189 1190 1191 1190 1189 1189 1191 1191 1190 1188 1188 1189 1190 1190 1190 1191 1191 1192 1191 1190 1190 1190 1191 1190 1189 1188 1188 1188 1189 1189 1188 1189 1189 1190 1190 1190 1189 1189 1189 1189 1190 1191 1190 1190 1189 1189 1190 1191 1191 1189 1190 1189 1190 1189 1189 1189 1190 1192 1191 1191 1191 1191 1191 1192 1191 1189 1189 1189 1191 1190 1190 1190 1191 1191 1192 1191 1191 1190 1190 1192 1192 1193 1193 1193 1193 1192 1191 1191 1192 1193 1193 1192 1193 1191 1192 1192 1194 1193 1192 1192 1191 1193 1193 1193 1194 1194 1195 1195 1195 1194 1194 1195 1195 1194 1194 1194 1194 1195 1195 1196 1196 1195 1195 1195 1195 1195 1194 1195 1196 1196 1195 1194 1194 1196 1197 1196 1197 1197 1197 1197 1197 1197 1197 1196 1196 1196 1197 1196 1196 1196 1198 1197 1197 1198 1199 1198 1199 1200 1201 1200 1199 1200 1201 1202 1203 1202 1202 1202 1203 1201 1201 1200 1203 1203 1204 1203 1205 1205 1206 1204 1205 1204 1206 1206 1208 1207 1208 1208 1208 1210 1209 1209 1207 1207 1206 1208 1209 1210 1211 1212 1211 1210 1208 1208 1208 1208 1207 1208 1209 1208 1208 1207 1207 1207 1205 1207 1211 1215 1216 1212 1211 1208 1208 1205 1202 1198 1196 1193 1191 1188 1185 1182 1180 1178 1174 1172 1168 1165 1161 1157 1154 1150 1147 1146 1143 1138 1116 1078 1044 1026 1021 1020 1022 1026 0 0 1773 1764 1770 1775 1775 1766 1770 1763 1753 1739 1735 1743 1747 1750 1743 1736 1736 1740 1742 1740 0
    0 1134 1133 1131 1129 1128 1129 1129 1133 1136 1140 1141 1140 1137 1138 1140 1145 1147 1149 1150 1152 1156 1160 1162 1162 1162 1164 1170 1174 1181 1185 1191 1192 1195 1199 1210 1214 1223 1227 1235 1237 1243 1241 1222 0 1075 1028 1012 1006 1004 1000 999 998 999 998 998 997 998 999 999 1000 1000 1000 1000 999 999 999 1000 1001 1001 1002 1001 1001 1000 1002 1002 1003 1002 1001 1001 1001 1001 1002 1003 1002 1003 1002 1003 1003 1004 1001 1001 1000 1002 1002 1004 1004 1004 1003 1004 1005 1005 1004 1004 1003 1005 1009 1027 1055 1089 1109 1122 1135 1144 1150 1155 1160 1167 1172 1176 1179 1184 1188 1191 1193 1189 1187 1186 1189 1189 1190 1189 1191 1192 1191 1194 1195 1196 1195 1194 1195 1197 1198 1198 1198 1199 1200 1199 1197 1196 1196 1197 1197 1197 1196 1196 1196 1196 1196 1196 1195 1195 1194 1194 1195 1196 1195 1194 1192 1192 1194 1195 1195 1195 1193 1193 1192 1193 1192 1190 1190 1191 1190 1189 1189 1190 1191 1191 1192 1191 1191 1190 1192 1192 1191 1191 1190 1190 1189 1190 1190 1189 1187 1188 1189 1189 1189 1189 1190 1189 1189 1189 1188 1188 1186 1186 1186 1188 1189 1190 1189 1189 1189 1189 1191 1190 1188 1187 1189 1190 1190 1189 1188 1188 1189 1189 1190 1190 1191 1191 1190 1191 1192 1191 1189 1188 1189 1190 1190 1189 1189 1188 1190 1190 1190 1189 1190 1190 1189 1188 1188 1188 1189 1190 1190 1190 1189 1189 1189 1189 1190 1190 1189 1189 1189 1190 1191 1190 1190 1188 1189 1190 1190 1190 1188 1188 1189 1191 1190 1188 1188 1189 1191 1191 1192 1191 1192 1192 1193 1191 1190 1189 1189 1191 1191 1191 1191 1191 1192 1192 1192 1191 1192 1192 1193 1192 1192 1193 1192 1193 1192 1192 1190 1191 1191 1192 1192 1193 1191 1192 1192 1192 1192 1191 1192 1192 1193 1191 1193 1193 1194 1193 1193 1194 1194 1192 1192 1193 1194 1193 1193 1194 1196 1196 1196 1196 1197 1194 1195 1194 1196 1196 1197 1196 1196 1194 1194 1193 1195 1196 1197 1197 1198 1197 1196 1195 1195 1196 1196 1196 1197 1197 1198 1197 1196 1197 1197 1197 1197 1199 1198 1199 1200 1201 1200 1200 1200 1200 1201 1202 1201 1201 1202 1203 1202 1200 1200 1202 1203 1203 1202 1203 1204 1205 1204 1204 1203 1205 1205 1207 1207 1208 1208 1207 1208 1207 1208 1206 1206 1206 1208 1209 1209 1209 1210 1210 1209 1208 1209 1209 1208 1206 1207 1207 1207 1206 1206 1205 1205 1205 1208 1211 1216 1215 1213 1211 1208 1207 1204 1202 1199 1197 1194 1191 1187 1184 1182 1181 1179 1174 1170 1166 1164 1161 1157 1154 1150 1145 1144 1142 1139 1115 1075 1041 1025 1021 1021 1023 1026 0 0 1774 1769 1769 1764 1766 1767 1756 1747 1741 1743 1741 1746 1762 1762 1753 1749 1742 1745 1759 1753 0
    0 1131 1132 1130 1128 1127 1130 1130 1132 1135 1139 1140 1140 1139 1138 1141 1144 1148 1149 1151 1152 1156 1160 1162 1160 1162 1164 1170 1173 1181 1187 1192 1192 1195 1199 1208 1214 1222 1229 1236 1234 1235 1234 1223 1170 1099 1037 1014 1006 1003 1001 1000 999 1000 999 999 998 999 1000 1000 1000 1000 1000 1000 999 999 1000 1001 1002 1001 1001 1000 1000 1000 1001 1001 1001 1000 1001 1000 1001 1001 1001 1001 1001 1002 1002 1002 1002 1002 1002 1001 1001 1003 1003 1004 1003 1004 1002 1003 1003 1004 1004 1004 1003 1006 1011 1028 1057 1090 1109 1122 1134 1143 1150 1156 1160 1166 1170 1174 1178 1183 1187 1190 1192 1189 1186 1185 1187 1189 1191 1191 1191 1192 1192 1194 1194 1196 1196 1195 1195 1195 1196 1197 1198 1199 1199 1199 1198 1198 1197 1198 1197 1197 1196 1197 1196 1195 1194 1194 1194 1195 1195 1196 1195 1197 1196 1195 1192 1192 1193 1194 1194 1194 1193 1193 1192 1193 1191 1191 1189 1191 1190 1190 1189 1189 1190 1190 1192 1192 1192 1192 1191 1192 1190 1191 1191 1191 1189 1188 1189 1189 1188 1189 1189 1189 1189 1188 1189 1189 1190 1190 1190 1189 1188 1187 1187 1188 1190 1189 1189 1188 1189 1189 1191 1190 1189 1189 1190 1191 1191 1189 1189 1189 1189 1188 1189 1189 1191 1190 1188 1189 1190 1191 1189 1189 1190 1190 1190 1188 1189 1189 1190 1189 1189 1189 1190 1191 1189 1188 1188 1188 1189 1190 1190 1191 1188 1189 1188 1190 1190 1191 1189 1189 1189 1190 1192 1191 1191 1189 1188 1189 1191 1191 1189 1189 1189 1190 1189 1188 1189 1191 1192 1192 1191 1191 1190 1190 1191 1190 1189 1189 1190 1192 1192 1193 1192 1192 1192 1191 1191 1191 1192 1192 1192 1192 1192 1192 1191 1191 1192 1192 1191 1191 1192 1193 1192 1193 1193 1194 1193 1193 1192 1191 1192 1192 1193 1193 1194 1194 1194 1193 1193 1194 1194 1194 1194 1194 1195 1195 1194 1195 1196 1196 1196 1196 1196 1195 1194 1194 1195 1197 1196 1195 1195 1195 1195 1195 1197 1198 1198 1198 1198 1197 1196 1196 1196 1198 1198 1198 1198 1199 1199 1198 1198 1198 1198 1197 1197 1198 1199 1200 1200 1201 1200 1200 1200 1200 1201 1202 1202 1202 1203 1203 1202 1201 1201 1203 1204 1204 1203 1204 1205 1206 1204 1204 1203 1204 1205 1207 1208 1209 1208 1207 1208 1208 1209 1208 1206 1207 1208 1209 1209 1210 1211 1210 1209 1209 1210 1210 1208 1208 1208 1209 1208 1207 1206 1205 1204 1204 1206 1210 1215 1215 1214 1212 1209 1207 1203 1201 1199 1197 1195 1191 1187 1184 1182 1181 1177 1173 1169 1168 1165 1162 1157 1154 1150 1146 1145 1141 1137 1115 1074 1042 1025 1022 1021 1022 1024 0 0 0 1774 1771 1754 1761 1756 1733 1733 1743 1746 1745 1762 1766 1764 1752 1749 1745 1750 1773 1818 0
    0 1132 1133 1131 1130 1129 1131 1130 1130 1130 1134 1135 1138 1139 1139 1143 1145 1149 1150 1153 1153 1156 1160 1164 1163 1166 1167 1172 1175 1182 1187 1189 1192 1197 1200 1208 1213 1221 1225 1232 1231 1233 1234 1221 1174 1113 1050 1017 1005 1003 1001 1000 1000 1000 1000 999 999 998 999 999 1000 1001 1000 999 999 1000 1001 1001 1000 1000 1001 1000 1000 1001 1000 1000 1000 1000 1001 1000 1001 1000 1000 1001 1001 1003 1003 1003 1003 1002 1002 1001 1002 1003 1004 1004 1004 1005 1003 1002 1001 1003 1004 1005 1005 1007 1011 1027 1057 1090 1110 1123 1136 1143 1150 1155 1161 1166 1169 1173 1178 1182 1186 1189 1191 1188 1186 1185 1187 1189 1191 1191 1190 1192 1193 1195 1194 1194 1196 1197 1197 1197 1197 1197 1197 1197 1195 1195 1196 1197 1197 1198 1197 1198 1197 1197 1196 1195 1194 1194 1195 1195 1196 1196 1196 1197 1196 1194 1193 1192 1193 1194 1194 1194 1192 1192 1194 1195 1193 1191 1190 1191 1190 1191 1191 1191 1192 1192 1192 1192 1192 1192 1191 1191 1190 1191 1190 1191 1190 1188 1187 1188 1188 1188 1189 1189 1189 1188 1188 1188 1189 1190 1189 1189 1189 1188 1188 1188 1190 1189 1190 1188 1189 1188 1190 1189 1189 1189 1190 1189 1188 1187 1188 1189 1189 1188 1188 1190 1191 1190 1189 1190 1189 1191 1189 1190 1190 1190 1190 1187 1188 1188 1189 1188 1188 1188 1190 1189 1189 1188 1189 1189 1190 1190 1191 1191 1189 1189 1188 1190 1190 1190 1190 1190 1191 1190 1192 1191 1190 1188 1188 1190 1192 1192 1191 1190 1191 1191 1191 1190 1191 1191 1191 1191 1191 1191 1190 1190 1189 1190 1191 1192 1191 1192 1192 1193 1193 1192 1191 1190 1191 1191 1192 1192 1191 1191 1191 1192 1191 1192 1193 1192 1193 1192 1193 1192 1191 1192 1193 1194 1193 1192 1191 1191 1192 1193 1192 1191 1192 1192 1193 1193 1193 1193 1193 1193 1193 1192 1193 1193 1194 1193 1194 1194 1194 1195 1196 1195 1193 1194 1195 1196 1196 1194 1194 1194 1195 1195 1196 1196 1196 1196 1197 1196 1195 1194 1196 1197 1198 1198 1198 1198 1199 1198 1197 1197 1197 1197 1196 1198 1197 1198 1199 1200 1200 1200 1201 1200 1201 1201 1202 1202 1202 1202 1202 1200 1201 1201 1203 1203 1203 1203 1203 1203 1203 1203 1203 1203 1204 1206 1208 1208 1208 1208 1208 1208 1207 1206 1205 1207 1208 1209 1208 1208 1209 1208 1208 1208 1209 1209 1208 1210 1209 1209 1208 1208 1207 1205 1204 1203 1204 1209 1212 1214 1213 1212 1211 1208 1203 1200 1198 1196 1194 1190 1188 1184 1181 1179 1175 1172 1168 1168 1164 1161 1157 1154 1150 1146 1143 1140 1137 1114 1074 1041 1026 1022 1021 1022 1023 0 0 0 1751 1748 1736 1749 1738 1748 1745 1754 1754 1758 1765 1766 1758 1755 1753 1756 1765 1810 1807 0
    0 1124 1127 1131 1133 1132 1132 1132 1131 1129 1131 1131 1133 1135 1139 1141 1144 1146 1148 1151 1153 1158 1162 1165 1164 1167 1170 1173 1175 1180 1187 1190 1193 1198 1203 1206 1212 1220 1227 1233 1234 1236 1234 1221 1179 1108 1047 1016 1005 1004 1002 1001 1001 1001 1000 999 999 999 999 999 998 999 999 1000 999 1000 1001 1001 1001 1000 1000 1000 1001 1000 999 999 1000 1000 1001 1000 1001 1000 1001 1000 1001 1002 1002 1003 1003 1002 1002 1002 1004 1004 1006 1006 1006 1006 1006 1004 1003 1004 1005 1005 1004 1005 1010 1026 1057 1089 1109 1123 1136 1142 1148 1155 1161 1166 1170 1173 1178 1183 1187 1189 1190 1188 1186 1185 1187 1189 1189 1190 1191 1193 1195 1195 1194 1194 1196 1197 1196 1197 1196 1196 1196 1197 1195 1195 1196 1198 1198 1198 1197 1196 1196 1195 1195 1194 1194 1194 1195 1197 1197 1198 1196 1196 1195 1194 1193 1191 1192 1193 1193 1194 1193 1192 1193 1193 1192 1191 1191 1192 1191 1192 1191 1190 1191 1192 1192 1191 1190 1192 1191 1192 1190 1192 1191 1192 1190 1190 1188 1189 1189 1190 1190 1189 1189 1189 1189 1189 1189 1190 1190 1191 1191 1190 1190 1189 1191 1191 1191 1189 1189 1187 1189 1188 1188 1188 1189 1189 1189 1188 1189 1189 1188 1187 1187 1188 1189 1189 1189 1190 1190 1190 1189 1189 1189 1189 1189 1188 1188 1189 1189 1188 1188 1188 1189 1189 1189 1189 1189 1190 1190 1190 1189 1190 1190 1190 1190 1192 1191 1190 1189 1190 1191 1191 1191 1191 1190 1190 1189 1190 1191 1191 1190 1189 1189 1189 1190 1191 1192 1192 1191 1191 1191 1191 1190 1190 1189 1190 1191 1193 1193 1193 1193 1193 1192 1192 1191 1190 1190 1190 1190 1191 1191 1191 1191 1193 1192 1192 1191 1192 1193 1193 1193 1192 1191 1191 1192 1193 1193 1193 1192 1193 1192 1193 1193 1192 1191 1191 1193 1194 1195 1194 1193 1194 1194 1193 1193 1194 1194 1194 1193 1194 1193 1194 1194 1195 1195 1195 1195 1194 1194 1194 1195 1196 1197 1197 1196 1195 1195 1195 1196 1196 1195 1195 1197 1198 1198 1198 1197 1197 1198 1199 1198 1198 1197 1198 1197 1198 1198 1198 1199 1200 1200 1200 1201 1201 1201 1202 1202 1201 1200 1200 1201 1201 1201 1202 1204 1205 1205 1204 1204 1205 1204 1204 1205 1206 1206 1206 1208 1208 1209 1208 1209 1209 1208 1207 1206 1208 1208 1209 1209 1210 1209 1208 1207 1208 1208 1209 1207 1210 1210 1211 1209 1209 1208 1207 1205 1204 1205 1209 1213 1215 1214 1213 1209 1207 1203 1200 1198 1195 1193 1190 1188 1184 1180 1177 1175 1173 1170 1169 1164 1161 1157 1154 1151 1148 1144 1140 1135 1114 1074 1043 1028 1024 1021 1022 1023 0 0 0 1738 1731 1749 1757 1763 1781 1772 1750 1748 1762 1765 1756 1754 1752 1746 1751 1762 1793 1780 0
    0 1122 1124 1130 1131 1132 1130 1131 1129 1128 1130 1131 1132 1135 1142 1146 1147 1144 1146 1147 1151 1156 1162 1165 1166 1169 1171 1172 1173 1177 1184 1190 1196 1201 1204 1207 1212 1220 1227 1233 1238 1242 1240 1219 1178 1098 1042 1015 1002 1002 1000 1001 1000 998 999 998 999 998 999 998 998 998 998 999 1000 1000 1001 1000 1000 999 1000 1002 1002 1002 1001 1000 1001 1000 1001 1000 1001 1001 1001 1002 1001 1001 1001 1003 1003 1002 1002 1001 1002 1003 1005 1006 1005 1006 1006 1006 1005 1005 1006 1006 1006 1006 1009 1025 1056 1088 1109 1123 1136 1142 1149 1155 1162 1167 1171 1175 1179 1183 1188 1190 1190 1188 1186 1185 1186 1188 1189 1189 1192 1192 1195 1194 1194 1192 1194 1197 1198 1198 1196 1195 1196 1197 1196 1195 1194 1196 1196 1197 1196 1196 1195 1194 1194 1196 1195 1195 1195 1197 1197 1197 1195 1195 1194 1194 1193 1192 1192 1193 1194 1195 1194 1193 1193 1193 1193 1192 1192 1193 1193 1193 1192 1191 1191 1192 1192 1191 1189 1191 1191 1192 1190 1191 1190 1191 1190 1191 1190 1190 1189 1189 1190 1189 1189 1189 1190 1188 1187 1188 1188 1189 1189 1189 1190 1189 1190 1191 1190 1189 1189 1188 1189 1188 1188 1188 1189 1189 1189 1189 1189 1188 1188 1188 1188 1188 1190 1189 1190 1190 1191 1191 1189 1188 1187 1187 1189 1189 1189 1188 1188 1188 1188 1188 1189 1189 1189 1189 1189 1189 1190 1189 1189 1189 1190 1190 1190 1191 1190 1189 1188 1189 1190 1190 1190 1190 1190 1189 1189 1190 1191 1190 1190 1190 1190 1189 1189 1190 1191 1191 1191 1190 1191 1191 1193 1192 1191 1190 1191 1192 1193 1192 1192 1191 1191 1190 1191 1190 1190 1190 1191 1192 1192 1191 1191 1193 1194 1193 1192 1191 1192 1192 1193 1192 1192 1191 1192 1192 1193 1193 1193 1193 1193 1194 1193 1192 1192 1192 1193 1194 1193 1194 1193 1193 1192 1192 1193 1193 1193 1193 1192 1193 1193 1194 1193 1194 1195 1195 1195 1194 1194 1192 1192 1194 1196 1196 1195 1194 1195 1196 1197 1196 1195 1194 1195 1196 1197 1196 1195 1195 1197 1198 1198 1197 1197 1198 1197 1198 1198 1198 1198 1198 1199 1200 1201 1201 1201 1201 1200 1199 1198 1200 1201 1201 1201 1201 1203 1204 1203 1201 1202 1203 1203 1203 1205 1205 1205 1205 1206 1206 1206 1206 1207 1207 1206 1206 1206 1208 1208 1208 1208 1209 1208 1206 1206 1207 1208 1209 1207 1209 1209 1210 1209 1209 1207 1206 1204 1204 1206 1211 1215 1217 1215 1212 1208 1206 1204 1201 1198 1195 1192 1190 1187 1183 1180 1178 1177 1173 1170 1167 1162 1159 1156 1153 1152 1147 1145 1141 1137 1114 1073 1042 1028 1024 1022 1023 1026 0 0 0 1764 1748 1747 1754 1769 1772 1780 1750 1744 1761 1759 1741 1730 1734 1738 1754 1749 1744 1759 0
    0 1119 1121 1128 1127 1130 1129 1133 1131 1132 1131 1134 1134 1137 1143 1145 1146 1142 1144 1147 1154 1160 1165 1165 1168 1168 1171 1171 1172 1174 1181 1189 1197 1199 1202 1205 1212 1219 1227 1235 1240 1245 1240 1220 1177 1090 1044 1016 1004 1002 1000 1000 999 998 999 998 1000 999 1000 1000 999 998 999 1000 1000 1001 1001 1000 1000 1000 1001 1001 1002 1002 1002 1000 1001 1000 1002 1000 1001 1001 1002 1002 1001 1000 1001 1003 1003 1003 1002 1001 1001 1002 1004 1006 1005 1005 1005 1006 1007 1006 1006 1006 1006 1007 1010 1027 1057 1088 1108 1123 1135 1141 1147 1154 1160 1166 1171 1174 1178 1183 1188 1190 1190 1188 1185 1184 1185 1187 1189 1189 1191 1191 1193 1193 1194 1194 1194 1196 1198 1198 1196 1194 1197 1199 1199 1198 1197 1198 1197 1196 1195 1196 1195 1195 1194 1195 1196 1195 1195 1195 1196 1196 1193 1193 1193 1193 1193 1192 1192 1193 1194 1195 1194 1194 1193 1193 1193 1193 1193 1193 1194 1194 1192 1190 1189 1191 1191 1191 1190 1191 1191 1192 1190 1191 1190 1191 1190 1190 1190 1190 1189 1190 1189 1189 1189 1190 1190 1189 1188 1188 1189 1189 1189 1189 1189 1189 1190 1191 1190 1189 1189 1188 1188 1188 1189 1189 1189 1189 1189 1190 1189 1188 1189 1190 1190 1188 1188 1188 1189 1189 1190 1190 1189 1188 1187 1187 1188 1189 1190 1189 1189 1189 1189 1189 1190 1191 1190 1191 1189 1190 1189 1189 1188 1190 1190 1191 1190 1190 1189 1189 1188 1189 1189 1189 1190 1190 1190 1190 1190 1191 1191 1190 1189 1190 1189 1189 1188 1189 1190 1190 1191 1191 1191 1192 1193 1192 1191 1190 1190 1192 1192 1192 1193 1192 1191 1191 1191 1191 1190 1190 1191 1192 1191 1191 1191 1193 1192 1191 1190 1191 1192 1192 1193 1193 1193 1192 1193 1193 1193 1194 1194 1194 1194 1194 1194 1193 1193 1193 1193 1193 1193 1194 1195 1194 1193 1193 1193 1193 1192 1193 1194 1193 1193 1193 1193 1193 1194 1194 1195 1194 1195 1193 1193 1194 1195 1196 1195 1195 1196 1198 1198 1198 1196 1196 1196 1196 1196 1196 1196 1197 1198 1199 1198 1198 1198 1199 1199 1199 1198 1199 1199 1199 1200 1201 1203 1203 1202 1201 1199 1199 1198 1199 1201 1202 1202 1201 1202 1204 1204 1203 1203 1203 1204 1204 1206 1207 1207 1206 1206 1207 1207 1206 1207 1208 1209 1208 1208 1208 1209 1209 1209 1209 1209 1207 1206 1207 1208 1210 1208 1209 1209 1211 1209 1208 1206 1205 1205 1205 1207 1210 1215 1216 1215 1212 1208 1205 1204 1202 1200 1196 1193 1190 1187 1184 1183 1180 1178 1174 1171 1168 1164 1160 1157 1154 1152 1147 1145 1142 1138 1116 1075 1042 1028 1024 1023 1023 1026 0 0 0 1762 1764 1739 1744 1746 1762 1763 1747 1740 1744 1761 1751 0 1724 1732 1750 1748 1733 1725 0
    0 1124 1124 1127 1124 1128 1129 1133 1131 1133 1134 1137 1137 1140 1144 1146 1146 1143 1143 1147 1153 1161 1165 1167 1169 1170 1172 1174 1174 1175 1178 1184 1192 1196 1202 1207 1214 1220 1226 1235 1240 1246 1243 1226 1186 1122 1047 1016 1003 1000 998 998 997 998 998 998 999 998 999 1000 1000 999 999 999 1000 1001 1001 1001 1000 1000 1001 1002 1003 1002 1003 1002 1002 1001 1002 1000 1001 1002 1003 1002 1001 1001 1001 1003 1003 1003 1001 1000 1000 1002 1003 1004 1003 1004 1003 1005 1005 1006 1004 1005 1005 1007 1010 1027 1056 1087 1107 1122 1135 1142 1147 1154 1160 1166 1171 1175 1178 1182 1187 1189 1190 1188 1186 1185 1185 1187 1190 1192 1193 1192 1192 1193 1194 1194 1195 1196 1199 1198 1197 1194 1197 1198 1198 1198 1197 1197 1196 1195 1194 1195 1196 1196 1195 1195 1195 1195 1194 1194 1195 1194 1193 1192 1193 1193 1193 1192 1191 1192 1193 1194 1194 1194 1194 1193 1193 1193 1193 1193 1193 1193 1192 1191 1192 1191 1191 1190 1189 1190 1190 1191 1190 1190 1190 1190 1189 1189 1189 1190 1190 1190 1190 1190 1190 1190 1189 1188 1188 1188 1189 1189 1190 1190 1190 1189 1189 1189 1188 1188 1188 1188 1188 1189 1190 1189 1190 1189 1189 1190 1189 1188 1189 1190 1190 1188 1188 1189 1189 1189 1190 1190 1190 1190 1190 1189 1189 1190 1190 1190 1190 1189 1189 1189 1190 1191 1190 1191 1189 1189 1188 1189 1189 1190 1191 1190 1190 1190 1190 1189 1189 1188 1189 1189 1190 1190 1189 1188 1190 1190 1190 1189 1189 1191 1191 1191 1190 1189 1189 1189 1191 1192 1192 1191 1192 1191 1190 1190 1191 1192 1192 1191 1192 1192 1192 1191 1192 1191 1192 1192 1193 1191 1190 1191 1192 1192 1192 1191 1192 1192 1192 1193 1195 1194 1193 1192 1192 1191 1192 1193 1194 1193 1193 1192 1192 1192 1193 1193 1193 1192 1191 1193 1195 1195 1192 1192 1194 1193 1193 1192 1193 1192 1193 1192 1193 1192 1193 1193 1194 1195 1196 1194 1194 1194 1195 1195 1195 1195 1196 1197 1198 1196 1195 1195 1196 1195 1195 1195 1196 1196 1198 1198 1198 1196 1198 1198 1198 1197 1198 1198 1199 1199 1201 1201 1202 1203 1202 1201 1200 1199 1200 1200 1202 1202 1201 1200 1200 1201 1203 1202 1203 1203 1203 1204 1204 1206 1206 1206 1206 1206 1206 1207 1207 1208 1209 1207 1207 1207 1209 1209 1209 1209 1210 1208 1207 1208 1209 1210 1209 1209 1208 1209 1208 1207 1206 1205 1204 1204 1206 1209 1215 1215 1214 1210 1209 1205 1204 1202 1200 1198 1194 1190 1186 1184 1183 1181 1178 1173 1171 1168 1164 1160 1157 1154 1150 1145 1144 1142 1137 1114 1075 1041 1027 1022 1021 1021 1026 0 0 0 1752 1740 1746 1739 1737 1743 1748 1749 1730 1742 1754 1752 1735 1732 1738 1759 1762 1745 1734 0
    0 1124 1122 1125 1123 1127 1128 1133 1131 1134 1133 1137 1137 1139 1143 1143 1143 1142 1143 1150 1156 1164 1165 1165 1167 1169 1174 1176 1178 1178 1180 1182 1189 1194 1202 1207 1213 1219 1227 1236 1238 1243 1243 1228 0 1127 1050 1018 1004 1000 998 998 999 999 1000 999 999 998 999 1000 1000 1000 999 999 1000 1001 1001 1001 1000 1000 1001 1001 1002 1003 1004 1003 1003 1001 1001 1000 1000 1001 1002 1002 1002 1001 1002 1003 1004 1003 1002 1001 1001 1003 1003 1003 1003 1004 1003 1004 1004 1004 1004 1004 1004 1006 1009 1026 1055 1087 1107 1122 1135 1141 1147 1154 1160 1166 1170 1174 1178 1182 1187 1191 1191 1189 1186 1184 1184 1187 1191 1193 1194 1193 1192 1193 1196 1196 1196 1196 1198 1198 1198 1196 1197 1198 1198 1198 1198 1199 1198 1196 1195 1196 1197 1197 1196 1195 1195 1194 1194 1193 1194 1194 1194 1193 1194 1194 1195 1193 1191 1192 1192 1193 1194 1195 1195 1193 1193 1192 1192 1191 1193 1192 1191 1191 1192 1190 1190 1190 1190 1190 1191 1191 1190 1189 1190 1188 1188 1187 1189 1190 1190 1190 1189 1190 1190 1191 1189 1189 1189 1191 1191 1190 1190 1190 1189 1189 1189 1188 1188 1188 1188 1187 1188 1188 1189 1189 1189 1189 1189 1189 1188 1189 1190 1190 1190 1188 1188 1189 1190 1190 1190 1190 1190 1190 1191 1190 1189 1189 1190 1190 1190 1190 1189 1189 1190 1191 1191 1191 1190 1190 1189 1189 1190 1190 1191 1190 1189 1189 1190 1190 1189 1187 1188 1189 1190 1190 1188 1189 1190 1190 1190 1189 1189 1190 1190 1191 1190 1190 1189 1188 1190 1192 1192 1191 1191 1191 1190 1191 1192 1193 1193 1192 1191 1191 1192 1192 1191 1190 1191 1192 1193 1192 1191 1192 1193 1193 1192 1191 1191 1192 1193 1193 1193 1193 1191 1193 1193 1192 1191 1193 1194 1194 1193 1193 1193 1193 1193 1192 1191 1190 1191 1194 1195 1195 1193 1193 1195 1195 1195 1193 1194 1193 1193 1192 1193 1193 1194 1194 1194 1194 1196 1196 1195 1195 1196 1196 1196 1195 1195 1195 1196 1196 1196 1196 1196 1195 1195 1196 1197 1197 1199 1198 1199 1198 1198 1198 1198 1198 1198 1198 1199 1201 1201 1202 1202 1202 1202 1201 1201 1200 1200 1201 1202 1203 1202 1201 1201 1202 1204 1204 1204 1204 1204 1206 1207 1207 1207 1206 1206 1207 1207 1208 1209 1209 1209 1207 1208 1208 1210 1209 1210 1210 1210 1210 1210 1210 1209 1210 1210 1210 1208 1208 1207 1208 1206 1206 1206 1204 1206 1208 1214 1214 1214 1210 1209 1206 1204 1202 1200 1199 1195 1190 1187 1185 1184 1181 1178 1175 1172 1169 1165 1161 1157 1154 1149 1145 1143 1140 1134 1112 1075 1043 1028 1023 1021 1022 1022 0 0 0 1742 1747 1748 1740 1737 1722 1734 1735 1742 1749 1753 1754 1746 1747 1745 1736 1731 1753 1734 0</data></EmptySandboxInsideBox>
</opencv_storage>
