<?xml version="1.0"?>
<opencv_storage>
<EmptySandboxInsideBox type_id="opencv-matrix">
  <rows>38</rows>
  <cols>512</cols>
  <dt>w</dt>
  <data>
    0 1039 1043 1041 1041 1041 1047 1049 0 0 0 0 0 0 0 0 0 0 1006 0 0 0 0 1010 0 1070 0 0 0 1752 1756 1743 1714 1766 1780 1717 1710 1734 1762 1754 1750 1748 1749 1749 1776 0 0 0 1016 1016 1014 1013 1006 1007 1006 1008 1008 1009 1009 1010 1009 1008 1007 1007 1008 1008 1009 1010 1010 1009 1007 1007 1007 1008 1008 1008 1007 1008 1008 1009 1008 1008 1008 1008 1007 1007 1007 1008 1009 1008 1009 1008 1008 1008 1009 1008 1007 1007 1008 1007 1009 1011 1011 1010 1010 1011 1011 1012 1013 1014 1020 1039 1069 1097 1114 1126 1135 1140 1147 1152 1157 1161 1167 1172 1177 1182 1186 1190 1190 1189 1190 1189 1192 1193 1194 1193 1194 1195 1194 1194 1195 1197 1196 1198 1199 1200 1199 1199 1200 1200 1198 1198 1197 1199 1199 1201 1202 1200 1199 1199 1198 1199 1199 1200 1200 1199 1198 1198 1198 1197 1197 1198 1200 1199 1199 1199 1200 1198 1197 1197 1198 1199 1199 1198 1198 1197 1198 1197 1197 1198 1199 1198 1196 1195 1195 1195 1195 1195 1194 1194 1195 1197 1197 1197 1196 1195 1195 1196 1195 1193 1192 1195 1194 1195 1191 1191 1191 1193 1194 1193 1194 1194 1194 1194 1194 1193 1192 1193 1192 1192 1192 1193 1192 1192 1193 1193 1193 1193 1193 1193 1193 1193 1192 1192 1193 1195 1195 1194 1194 1194 1193 1193 1193 1194 1193 1192 1192 1192 1191 1192 1192 1192 1192 1192 1193 1193 1192 1192 1191 1190 1191 1192 1192 1191 1192 1192 1192 1192 1193 1192 1192 1192 1194 1193 1191 1190 1193 1193 1193 1191 1191 1190 1190 1191 1193 1194 1193 1191 1194 1194 1194 1191 1191 1191 1192 1194 1195 1196 1195 1194 1193 1192 1191 1190 1192 1193 1191 1190 1190 1192 1193 1193 1194 1194 1195 1192 1192 1192 1194 1194 1194 1194 1196 1196 1196 1194 1194 1193 1194 1193 1193 1193 1194 1196 1197 1198 1196 1194 1194 1194 1196 1196 1197 1198 1198 1197 1197 1196 1197 1197 1198 1198 1198 1197 1196 1198 1199 1199 1198 1198 1199 1198 1196 1196 1198 1200 1198 1197 1196 1197 1197 1197 1197 1196 1196 1197 1200 1201 1201 1200 1201 1200 1200 1200 1202 1202 1201 1201 1200 1200 1200 1201 1200 1200 1198 1200 1200 1202 1202 1202 1201 1202 1201 1203 1203 1203 1204 1203 1204 1205 1206 1206 1206 1206 1205 1205 1204 1203 1203 1202 1204 1204 1205 1205 1204 1205 1205 1205 1205 1207 1208 1208 1206 1205 1206 1207 1207 1205 1203 1203 1202 1203 1203 1204 1205 1205 1204 1204 1201 1199 1195 1193 1189 1187 1184 1183 1180 1176 1172 1169 1166 1163 1159 1155 1151 1146 1143 1138 1136 1134 1131 1127 1123 1110 1087 1057 1038 1028 1023 1022 1024 1030 0 0 0 0 1742 0 1754 1745 1719 1744 1759 1765 1775 1760 1770 1752 1757 1748 1753 0
    0 1033 1040 1040 1041 1041 1050 1054 1071 0 0 0 0 0 0 0 0 0 0 0 998 0 0 0 1063 0 0 0 0 1708 1754 1734 1702 1738 1743 1744 1725 1734 1746 1740 1736 0 1737 1746 0 0 0 0 1017 1015 1008 1010 1005 1006 1006 1007 1007 1008 1008 1008 1008 1008 1007 1007 1008 1008 1009 1009 1009 1008 1007 1007 1008 1009 1009 1008 1009 1009 1009 1009 1008 1007 1007 1007 1008 1008 1008 1008 1008 1008 1008 1008 1009 1009 1009 1008 1008 1009 1009 1009 1010 1010 1009 1009 1009 1010 1011 1013 1013 1013 1019 1039 1069 1097 1113 1125 1135 1142 1149 1153 1157 1162 1168 1173 1178 1183 1187 1190 1190 1189 1190 1190 1194 1193 1193 1193 1194 1195 1196 1196 1198 1198 1198 1198 1200 1201 1200 1200 1201 1200 1200 1200 1201 1201 1201 1202 1202 1201 1200 1200 1200 1199 1200 1202 1202 1201 1199 1198 1197 1197 1198 1198 1199 1199 1201 1201 1201 1200 1199 1199 1198 1198 1199 1198 1198 1197 1199 1198 1197 1197 1198 1198 1197 1195 1196 1197 1196 1197 1195 1196 1196 1198 1197 1196 1197 1197 1196 1196 1195 1195 1193 1196 1194 1196 1195 1194 1192 1193 1194 1195 1196 1196 1196 1196 1195 1194 1193 1194 1194 1195 1195 1194 1193 1192 1194 1195 1196 1196 1196 1194 1193 1194 1193 1195 1195 1196 1196 1195 1194 1193 1193 1194 1194 1195 1194 1195 1194 1194 1194 1194 1195 1194 1194 1194 1195 1194 1193 1193 1191 1191 1191 1193 1193 1194 1194 1195 1195 1195 1196 1194 1193 1193 1194 1193 1192 1193 1194 1195 1194 1193 1192 1191 1192 1193 1194 1195 1194 1193 1195 1195 1196 1193 1193 1192 1193 1195 1196 1197 1197 1196 1194 1193 1192 1191 1192 1195 1194 1194 1193 1194 1194 1193 1194 1195 1196 1195 1194 1194 1194 1194 1194 1196 1197 1196 1195 1195 1195 1195 1195 1195 1195 1195 1196 1198 1199 1199 1196 1196 1196 1196 1197 1196 1197 1198 1198 1199 1198 1197 1196 1198 1199 1199 1198 1196 1195 1197 1199 1200 1199 1199 1200 1198 1197 1197 1198 1200 1199 1197 1197 1196 1198 1198 1199 1197 1196 1198 1201 1202 1201 1200 1201 1200 1199 1200 1202 1204 1202 1202 1202 1202 1201 1201 1201 1201 1199 1200 1201 1203 1203 1203 1202 1203 1203 1204 1205 1205 1205 1205 1205 1204 1205 1205 1206 1206 1206 1205 1205 1204 1204 1204 1206 1207 1207 1207 1206 1207 1207 1207 1207 1208 1209 1208 1208 1207 1207 1207 1207 1206 1204 1204 1202 1203 1203 1205 1206 1206 1204 1204 1201 1198 1195 1193 1190 1188 1186 1184 1181 1176 1172 1169 1167 1165 1160 1156 1151 1146 1143 1140 1137 1135 1132 1128 1123 1110 1086 1056 1037 1028 1021 1021 1023 1033 0 0 0 0 1745 1765 1774 1742 1731 1714 1742 1752 1753 1759 1750 1785 1742 1742 1735 0
    0 1033 1039 1040 1043 1046 1052 1057 1053 0 0 0 0 1685 0 0 0 0 0 0 0 0 1041 0 0 0 0 0 0 0 1696 1702 1728 1724 1750 1752 1750 1751 1725 1737 1741 1744 0 0 0 0 0 1010 1035 1020 1012 1006 1005 1006 1005 1007 1008 1008 1008 1008 1008 1008 1007 1007 1007 1008 1009 1009 1008 1007 1006 1007 1008 1009 1009 1008 1008 1008 1009 1008 1007 1006 1007 1007 1009 1008 1008 1007 1008 1008 1009 1008 1010 1011 1010 1008 1008 1009 1009 1010 1010 1010 1009 1009 1008 1009 1009 1011 1012 1013 1019 1039 1069 1098 1114 1125 1135 1142 1148 1153 1157 1163 1170 1175 1179 1183 1187 1190 1191 1190 1190 1191 1193 1193 1193 1193 1195 1195 1196 1197 1199 1200 1200 1199 1200 1201 1200 1199 1202 1202 1201 1201 1202 1201 1201 1202 1203 1202 1201 1202 1202 1201 1202 1203 1203 1201 1200 1200 1199 1198 1197 1197 1198 1199 1202 1202 1201 1201 1201 1201 1199 1197 1196 1195 1196 1198 1201 1201 1200 1197 1198 1200 1200 1198 1198 1198 1198 1198 1196 1196 1195 1196 1196 1197 1198 1198 1198 1198 1196 1196 1195 1196 1195 1196 1195 1196 1194 1194 1195 1197 1199 1199 1197 1195 1194 1194 1193 1195 1194 1195 1195 1196 1194 1193 1194 1196 1197 1195 1195 1194 1195 1195 1195 1195 1195 1197 1196 1196 1193 1192 1193 1195 1194 1195 1194 1196 1195 1195 1196 1196 1197 1195 1195 1194 1196 1195 1196 1195 1193 1192 1191 1193 1193 1193 1193 1194 1195 1195 1195 1194 1193 1194 1195 1195 1194 1195 1195 1194 1193 1193 1194 1194 1194 1193 1193 1193 1194 1195 1197 1197 1197 1194 1194 1194 1195 1195 1196 1196 1197 1195 1195 1193 1192 1193 1194 1197 1195 1194 1194 1195 1197 1195 1196 1195 1196 1193 1193 1193 1193 1194 1194 1196 1197 1197 1197 1196 1197 1197 1199 1199 1198 1196 1198 1199 1199 1198 1197 1197 1197 1198 1198 1197 1198 1198 1198 1198 1198 1198 1197 1199 1200 1200 1198 1198 1197 1198 1198 1200 1201 1201 1200 1198 1198 1198 1197 1199 1200 1199 1198 1197 1199 1199 1199 1198 1198 1199 1202 1202 1201 1200 1201 1200 1199 1201 1204 1205 1204 1203 1203 1202 1201 1201 1202 1203 1202 1203 1202 1204 1202 1203 1202 1203 1204 1204 1204 1204 1206 1206 1206 1205 1204 1204 1204 1205 1205 1206 1206 1206 1205 1205 1206 1208 1208 1208 1207 1208 1207 1208 1208 1209 1209 1208 1208 1208 1207 1206 1206 1207 1206 1205 1204 1204 1204 1206 1206 1207 1205 1204 1202 1198 1196 1193 1191 1188 1186 1185 1182 1178 1174 1172 1169 1165 1161 1157 1153 1148 1144 1142 1139 1136 1132 1129 1124 1111 1085 1055 1037 1028 1022 1021 1023 1035 0 0 0 1747 1768 1769 1770 1770 1743 1742 1742 1737 1755 1748 1758 1748 1741 1756 1760 0
    0 1035 1040 1047 1049 1052 1055 1062 0 0 0 0 1670 0 1707 1757 1768 0 0 0 0 0 1053 0 0 0 0 1018 0 0 0 0 1731 1745 1748 1776 1766 1734 1743 1728 1750 1772 0 0 0 0 0 1045 1037 1029 1017 1011 1007 1006 1005 1007 1008 1008 1007 1007 1008 1008 1006 1006 1005 1007 1008 1009 1008 1008 1007 1007 1008 1008 1008 1007 1006 1005 1006 1007 1006 1006 1007 1007 1008 1008 1009 1008 1008 1008 1008 1008 1009 1009 1009 1009 1009 1010 1009 1009 1008 1010 1009 1010 1008 1009 1010 1012 1012 1012 1018 1037 1068 1099 1116 1127 1136 1143 1149 1154 1158 1164 1170 1176 1179 1183 1186 1190 1192 1191 1191 1191 1193 1193 1193 1193 1194 1195 1197 1198 1200 1200 1200 1199 1201 1201 1200 1198 1201 1201 1201 1200 1201 1201 1201 1202 1203 1202 1202 1203 1202 1201 1202 1203 1203 1201 1201 1200 1201 1200 1200 1199 1200 1200 1201 1200 1200 1200 1201 1201 1199 1196 1196 1198 1198 1198 1199 1201 1200 1197 1197 1198 1201 1198 1198 1197 1198 1197 1196 1197 1196 1198 1198 1199 1199 1198 1198 1198 1196 1197 1196 1198 1197 1197 1197 1197 1196 1195 1196 1197 1199 1199 1198 1197 1196 1196 1195 1195 1195 1196 1196 1196 1195 1193 1194 1195 1196 1195 1196 1194 1196 1196 1196 1195 1195 1196 1196 1195 1192 1192 1193 1195 1195 1196 1196 1197 1197 1197 1197 1196 1197 1196 1197 1196 1197 1196 1196 1196 1196 1195 1193 1195 1194 1196 1194 1195 1195 1196 1195 1195 1194 1195 1194 1195 1194 1196 1196 1194 1193 1194 1195 1195 1196 1195 1195 1195 1195 1195 1196 1196 1196 1195 1196 1196 1196 1196 1196 1196 1196 1195 1196 1196 1195 1195 1196 1197 1197 1196 1196 1197 1197 1195 1195 1195 1198 1196 1196 1195 1195 1195 1196 1197 1196 1196 1197 1198 1198 1198 1200 1199 1198 1196 1197 1200 1200 1200 1199 1199 1198 1197 1197 1196 1197 1197 1198 1198 1199 1199 1198 1200 1200 1201 1199 1198 1197 1198 1197 1199 1200 1201 1199 1199 1200 1200 1199 1199 1200 1199 1199 1198 1201 1200 1200 1199 1200 1201 1204 1202 1202 1201 1202 1201 1199 1201 1203 1205 1205 1204 1203 1204 1203 1202 1202 1204 1203 1204 1203 1204 1204 1203 1202 1203 1206 1205 1205 1204 1206 1206 1205 1205 1205 1204 1204 1205 1206 1206 1206 1206 1205 1205 1206 1209 1209 1209 1208 1208 1207 1208 1209 1208 1209 1208 1210 1209 1207 1205 1206 1207 1208 1205 1205 1204 1206 1206 1208 1208 1207 1205 1202 1198 1196 1194 1193 1188 1186 1184 1182 1179 1176 1172 1168 1164 1161 1158 1155 1151 1146 1143 1140 1137 1133 1131 1126 1114 1087 1056 1035 1029 1024 1024 1024 1032 0 0 0 1750 1765 1775 1763 1745 1744 1753 1751 1757 1747 1748 1746 1758 1769 1760 1787 0
    0 1041 1044 1050 1051 1051 1050 1054 0 0 0 1683 1662 0 0 1748 1779 1811 0 0 0 0 0 0 0 0 0 1066 1072 0 0 0 1758 1768 1768 0 1725 1759 1715 1727 1719 0 1760 0 0 0 0 1061 1056 1019 1012 1008 1008 1006 1006 1007 1008 1008 1008 1007 1006 1006 1004 1005 1005 1008 1008 1009 1009 1009 1008 1007 1007 1007 1007 1008 1006 1006 1006 1007 1007 1007 1008 1008 1009 1007 1008 1008 1008 1010 1010 1009 1008 1009 1009 1009 1009 1009 1007 1007 1007 1009 1010 1011 1009 1010 1010 1012 1012 1013 1018 1038 1067 1097 1114 1127 1136 1143 1149 1155 1159 1165 1170 1177 1180 1184 1188 1192 1192 1192 1191 1191 1192 1193 1194 1194 1195 1197 1198 1199 1199 1200 1200 1201 1202 1202 1200 1200 1202 1203 1202 1201 1201 1201 1202 1202 1203 1202 1203 1202 1199 1200 1201 1203 1203 1201 1202 1203 1203 1202 1201 1201 1202 1201 1202 1200 1199 1199 1201 1202 1200 1198 1197 1199 1199 1199 1201 1201 1201 1197 1197 1199 1201 1199 1199 1197 1198 1198 1198 1199 1197 1198 1200 1200 1200 1200 1199 1198 1197 1197 1197 1198 1200 1200 1200 1199 1198 1198 1197 1199 1200 1199 1196 1196 1196 1196 1195 1196 1196 1197 1197 1197 1196 1195 1194 1194 1195 1194 1195 1195 1197 1196 1197 1196 1195 1195 1195 1196 1194 1194 1193 1195 1194 1196 1196 1197 1197 1196 1196 1196 1197 1196 1196 1196 1196 1196 1197 1196 1197 1196 1196 1196 1195 1196 1195 1195 1194 1194 1196 1196 1195 1196 1195 1195 1195 1195 1196 1195 1194 1194 1196 1197 1197 1194 1195 1196 1197 1197 1197 1197 1197 1196 1197 1198 1198 1197 1196 1196 1196 1195 1196 1196 1197 1197 1198 1198 1197 1196 1196 1197 1197 1195 1196 1196 1198 1195 1196 1195 1196 1196 1197 1198 1197 1196 1198 1198 1200 1200 1201 1199 1198 1198 1200 1202 1201 1202 1200 1199 1198 1196 1197 1196 1197 1197 1197 1197 1198 1200 1200 1200 1200 1201 1200 1199 1199 1198 1198 1198 1199 1200 1201 1202 1202 1201 1199 1199 1200 1199 1199 1200 1202 1202 1201 1201 1202 1202 1204 1202 1204 1202 1202 1201 1200 1201 1202 1203 1205 1204 1204 1204 1204 1203 1203 1205 1205 1205 1203 1203 1203 1202 1202 1202 1205 1204 1203 1203 1206 1207 1206 1206 1206 1206 1206 1206 1207 1206 1206 1207 1206 1206 1207 1208 1209 1209 1209 1208 1207 1208 1209 1208 1208 1208 1209 1209 1207 1207 1207 1207 1208 1206 1206 1204 1207 1208 1209 1209 1208 1205 1202 1198 1197 1196 1193 1188 1183 1182 1182 1180 1178 1174 1169 1163 1159 1156 1154 1152 1149 1145 1140 1137 1134 1131 1127 1115 1089 1057 1035 1029 1026 1025 1024 1024 0 0 0 1759 1764 1760 1758 1736 1760 1768 1758 1742 1730 1742 1757 1757 1759 1770 0 0
    0 1041 1042 1045 1046 1045 1046 1046 1010 0 0 1708 0 0 0 0 1754 0 0 0 0 0 0 0 0 0 0 0 0 0 1031 0 0 1784 1758 0 1719 1785 1727 1692 1706 0 0 0 0 0 0 1050 1039 1023 1013 1011 1010 1007 1007 1007 1008 1008 1008 1006 1005 1005 1006 1006 1006 1007 1007 1008 1009 1009 1009 1009 1007 1007 1007 1007 1006 1006 1006 1007 1007 1008 1009 1008 1009 1008 1008 1008 1009 1010 1008 1009 1008 1009 1009 1010 1009 1008 1007 1008 1008 1009 1009 1010 1010 1011 1011 1012 1012 1013 1019 1038 1067 1097 1113 1126 1137 1143 1149 1155 1160 1165 1170 1176 1179 1184 1189 1193 1192 1191 1191 1191 1192 1193 1195 1195 1196 1198 1199 1200 1200 1201 1200 1201 1202 1203 1203 1201 1202 1203 1202 1202 1203 1203 1203 1202 1203 1203 1203 1201 1198 1198 1200 1203 1203 1203 1203 1204 1203 1202 1202 1204 1204 1203 1201 1200 1200 1201 1202 1201 1199 1198 1199 1202 1201 1200 1200 1200 1199 1198 1199 1200 1201 1200 1199 1196 1196 1197 1199 1200 1199 1199 1200 1200 1201 1199 1199 1197 1198 1198 1198 1198 1200 1201 1201 1200 1200 1199 1199 1199 1199 1199 1198 1198 1198 1198 1197 1196 1197 1197 1199 1198 1198 1195 1194 1195 1195 1196 1196 1196 1196 1195 1196 1197 1197 1197 1197 1197 1196 1195 1195 1195 1195 1197 1197 1198 1197 1197 1196 1196 1196 1196 1195 1195 1196 1196 1197 1197 1198 1199 1199 1199 1197 1197 1196 1195 1195 1196 1198 1198 1196 1196 1196 1195 1194 1195 1197 1196 1196 1195 1197 1197 1197 1196 1196 1198 1197 1197 1196 1198 1197 1197 1197 1199 1199 1199 1198 1197 1197 1197 1197 1197 1198 1198 1198 1198 1198 1198 1197 1198 1197 1196 1197 1197 1199 1198 1198 1197 1198 1197 1198 1198 1198 1198 1199 1199 1200 1200 1199 1198 1198 1199 1198 1200 1201 1203 1202 1201 1199 1199 1198 1198 1198 1198 1199 1199 1199 1200 1200 1200 1200 1201 1200 1199 1199 1199 1200 1200 1199 1199 1200 1202 1202 1201 1200 1200 1200 1200 1201 1201 1202 1201 1201 1201 1203 1204 1204 1203 1204 1203 1204 1203 1201 1201 1201 1204 1204 1204 1203 1204 1204 1204 1203 1205 1205 1204 1203 1202 1202 1202 1203 1204 1205 1204 1205 1205 1207 1207 1207 1208 1208 1209 1207 1207 1206 1206 1206 1206 1207 1207 1208 1209 1209 1208 1208 1208 1207 1207 1208 1208 1207 1207 1208 1208 1208 1207 1207 1207 1208 1206 1206 1205 1206 1207 1210 1209 1208 1205 1202 1199 1198 1197 1194 1188 1183 1182 1181 1180 1177 1174 1170 1164 1160 1156 1153 1150 1147 1143 1139 1136 1134 1132 1127 1115 1089 1058 1035 1029 1025 1025 1021 1022 0 0 0 0 1771 1750 1730 1759 1760 1760 1736 1719 1724 1758 1780 1725 1723 0 1748 0
    0 1041 1042 1039 1041 1042 1045 1033 0 0 0 1715 0 0 0 0 0 0 1752 1753 1740 0 0 0 0 0 0 0 1030 1040 0 1033 0 0 0 0 1757 0 1723 1705 0 0 0 0 0 0 1047 1049 1034 1025 1016 1015 1013 1009 1008 1007 1007 1006 1007 1006 1006 1006 1007 1006 1005 1007 1007 1009 1008 1007 1007 1008 1007 1006 1006 1007 1008 1008 1008 1007 1006 1008 1009 1009 1008 1008 1007 1008 1008 1009 1009 1010 1009 1009 1008 1009 1009 1008 1008 1009 1009 1009 1008 1010 1011 1011 1011 1011 1011 1012 1017 1037 1066 1096 1112 1125 1135 1141 1148 1155 1160 1166 1170 1177 1180 1186 1190 1194 1193 1192 1191 1192 1192 1194 1196 1197 1198 1200 1199 1199 1198 1201 1201 1203 1204 1205 1204 1204 1205 1206 1205 1204 1205 1205 1204 1202 1202 1202 1202 1202 1199 1201 1202 1204 1204 1204 1205 1205 1203 1202 1202 1203 1204 1203 1202 1202 1202 1203 1203 1203 1200 1200 1200 1201 1201 1201 1199 1199 1200 1200 1201 1202 1202 1200 1199 1198 1198 1199 1200 1200 1198 1198 1199 1200 1200 1199 1199 1198 1199 1200 1200 1199 1199 1200 1200 1200 1200 1199 1199 1200 1200 1198 1196 1198 1197 1197 1197 1197 1198 1198 1199 1198 1198 1196 1195 1197 1197 1198 1197 1197 1196 1195 1196 1198 1199 1199 1199 1199 1198 1197 1196 1196 1196 1197 1197 1197 1198 1198 1197 1196 1196 1196 1196 1196 1196 1198 1197 1198 1198 1200 1201 1201 1198 1198 1197 1197 1197 1198 1200 1199 1200 1199 1199 1197 1196 1196 1197 1197 1197 1197 1199 1198 1198 1197 1197 1199 1197 1197 1197 1198 1197 1197 1198 1200 1200 1200 1198 1199 1198 1198 1198 1198 1198 1199 1198 1199 1197 1199 1197 1198 1198 1197 1197 1197 1199 1198 1198 1199 1198 1198 1197 1199 1200 1199 1198 1198 1199 1200 1199 1199 1200 1200 1199 1200 1201 1203 1201 1201 1199 1200 1199 1199 1199 1199 1199 1200 1199 1200 1200 1200 1200 1201 1202 1201 1201 1200 1200 1200 1200 1199 1200 1202 1202 1201 1201 1201 1201 1201 1201 1201 1201 1201 1201 1201 1202 1202 1202 1201 1202 1203 1204 1203 1202 1202 1203 1205 1205 1204 1203 1203 1204 1204 1204 1205 1205 1204 1203 1202 1202 1202 1203 1203 1203 1203 1205 1206 1207 1207 1208 1209 1209 1209 1208 1207 1206 1207 1207 1207 1208 1208 1208 1208 1207 1207 1208 1208 1207 1208 1209 1210 1208 1209 1208 1208 1207 1208 1207 1208 1208 1207 1206 1206 1206 1207 1209 1209 1207 1205 1202 1200 1198 1197 1194 1190 1184 1182 1180 1178 1176 1173 1170 1165 1161 1157 1154 1150 1146 1142 1139 1136 1134 1131 1127 1115 1089 1058 1036 1030 1024 1022 1021 1022 0 0 0 0 0 0 1744 1767 1757 1745 1744 1752 1744 1762 1751 1742 1737 1757 1759 0
    0 1043 1041 1037 1039 1043 1049 1020 0 0 0 0 0 0 0 0 0 1739 1745 1766 0 0 1836 0 0 0 0 0 0 1036 1044 1046 0 0 0 0 0 1726 1717 1736 0 0 0 0 0 0 0 0 1015 1015 1017 1020 1016 1011 1010 1008 1007 1005 1005 1005 1006 1007 1007 1006 1005 1006 1007 1008 1007 1007 1008 1009 1008 1006 1005 1005 1006 1007 1006 1007 1006 1007 1007 1007 1007 1008 1008 1009 1008 1009 1009 1010 1010 1010 1008 1008 1009 1009 1009 1009 1009 1009 1009 1010 1010 1010 1009 1009 1010 1011 1016 1036 1065 1096 1113 1126 1135 1141 1148 1155 1161 1166 1170 1177 1180 1185 1189 1193 1194 1193 1192 1192 1192 1194 1197 1198 1199 1199 1198 1199 1199 1202 1203 1203 1204 1204 1205 1204 1205 1206 1205 1206 1206 1206 1204 1203 1203 1202 1202 1203 1203 1204 1203 1203 1203 1204 1205 1205 1203 1203 1202 1203 1203 1203 1202 1203 1202 1203 1202 1202 1200 1200 1199 1200 1200 1200 1199 1198 1201 1203 1203 1203 1202 1201 1199 1199 1198 1199 1200 1201 1200 1199 1200 1201 1201 1199 1198 1198 1199 1201 1202 1200 1199 1199 1199 1200 1199 1197 1198 1198 1199 1197 1197 1198 1198 1198 1197 1197 1198 1198 1198 1199 1198 1198 1197 1198 1197 1196 1196 1197 1197 1198 1199 1199 1199 1199 1201 1200 1198 1196 1196 1196 1196 1197 1197 1197 1198 1198 1198 1197 1196 1196 1196 1197 1197 1199 1199 1199 1198 1200 1201 1201 1200 1198 1197 1197 1198 1199 1200 1201 1201 1201 1200 1199 1197 1197 1197 1197 1199 1198 1199 1197 1198 1199 1200 1201 1198 1198 1197 1199 1198 1197 1197 1198 1200 1199 1198 1198 1199 1199 1199 1198 1199 1199 1198 1199 1198 1199 1197 1197 1198 1197 1197 1198 1200 1201 1200 1201 1200 1200 1198 1199 1200 1200 1198 1198 1199 1199 1199 1200 1200 1200 1199 1200 1201 1203 1202 1200 1198 1200 1200 1201 1199 1201 1201 1201 1201 1201 1201 1201 1203 1203 1202 1202 1202 1202 1202 1202 1201 1201 1200 1201 1201 1201 1201 1202 1202 1203 1203 1202 1200 1201 1201 1201 1201 1202 1202 1202 1201 1202 1204 1204 1203 1202 1203 1205 1204 1204 1202 1203 1203 1203 1203 1203 1204 1204 1204 1204 1204 1203 1203 1204 1205 1205 1207 1208 1208 1207 1208 1209 1209 1209 1207 1207 1207 1208 1207 1207 1207 1208 1208 1207 1207 1208 1208 1207 1207 1208 1210 1211 1210 1210 1209 1210 1207 1207 1207 1208 1208 1208 1207 1206 1205 1206 1209 1208 1207 1204 1203 1202 1199 1196 1194 1190 1187 1183 1180 1178 1176 1173 1170 1166 1161 1157 1153 1150 1145 1142 1140 1136 1134 1130 1126 1116 1090 1060 1037 1031 1025 1023 1021 1023 1010 0 0 0 1757 1748 1780 1773 1742 1748 1746 1755 1747 1720 1720 1768 1773 1762 1771 0
    0 1045 1044 1040 1043 1045 1050 1023 0 0 0 0 0 0 0 0 0 1748 0 0 0 0 0 0 0 0 0 0 0 0 1061 0 0 0 0 0 1725 1721 1729 0 1777 1720 1718 0 0 0 0 0 997 1004 1011 1018 1015 1010 1009 1007 1006 1005 1004 1005 1006 1007 1007 1007 1006 1007 1007 1008 1007 1008 1008 1008 1007 1007 1007 1006 1007 1007 1006 1006 1006 1007 1006 1006 1006 1008 1008 1009 1009 1009 1010 1009 1010 1009 1008 1007 1007 1009 1009 1009 1008 1009 1008 1010 1010 1011 1010 1010 1010 1011 1016 1035 1064 1096 1113 1127 1135 1141 1147 1156 1162 1168 1171 1178 1181 1185 1187 1192 1194 1193 1193 1192 1192 1193 1196 1199 1199 1200 1200 1201 1202 1202 1202 1201 1203 1203 1204 1204 1206 1207 1206 1206 1205 1205 1204 1203 1204 1204 1204 1205 1206 1206 1205 1204 1205 1204 1204 1205 1204 1204 1203 1203 1202 1203 1203 1203 1202 1201 1201 1200 1200 1201 1200 1201 1201 1202 1200 1199 1200 1202 1203 1203 1203 1202 1201 1201 1201 1201 1200 1201 1199 1199 1199 1200 1201 1201 1201 1199 1200 1201 1202 1201 1199 1199 1199 1200 1199 1198 1198 1198 1198 1196 1196 1197 1198 1198 1198 1198 1199 1197 1198 1198 1199 1199 1198 1198 1198 1197 1198 1198 1199 1200 1201 1200 1198 1199 1201 1202 1199 1197 1197 1198 1197 1197 1196 1196 1197 1198 1199 1198 1198 1198 1198 1199 1199 1200 1198 1198 1197 1198 1201 1201 1200 1198 1198 1200 1199 1199 1199 1201 1201 1202 1200 1200 1199 1198 1198 1198 1199 1199 1199 1199 1199 1199 1201 1200 1198 1197 1197 1198 1198 1197 1198 1199 1200 1199 1198 1198 1199 1198 1198 1197 1199 1200 1200 1200 1199 1199 1198 1198 1197 1197 1197 1199 1201 1201 1200 1201 1201 1201 1199 1200 1199 1198 1198 1199 1199 1198 1198 1199 1200 1200 1201 1202 1204 1203 1202 1199 1198 1199 1200 1200 1200 1200 1201 1202 1201 1201 1200 1202 1203 1203 1202 1202 1202 1202 1202 1202 1203 1202 1202 1202 1201 1201 1202 1202 1203 1203 1204 1203 1201 1201 1202 1202 1202 1202 1202 1201 1201 1202 1204 1203 1202 1201 1202 1204 1203 1204 1204 1206 1204 1203 1202 1202 1203 1205 1206 1207 1207 1205 1203 1204 1204 1206 1205 1208 1207 1207 1207 1207 1208 1209 1209 1208 1208 1209 1208 1208 1207 1209 1209 1209 1209 1209 1209 1207 1208 1209 1211 1211 1211 1211 1210 1210 1207 1207 1206 1208 1208 1208 1206 1205 1205 1208 1210 1209 1207 1205 1205 1203 1200 1197 1194 1191 1187 1184 1180 1177 1175 1172 1168 1164 1159 1156 1152 1151 1146 1143 1139 1137 1133 1130 1126 1117 1093 1061 1038 1029 1025 1022 1023 1024 1017 0 0 0 1765 1774 1774 1728 1755 1749 1746 1751 1748 1733 1746 1750 1753 1772 1759 0
    0 1042 1042 1041 1045 1049 1053 1060 0 0 0 0 0 0 1704 0 0 0 0 0 1739 0 0 0 0 0 0 0 0 0 1065 1035 0 0 0 0 0 1755 1766 0 0 1750 0 0 0 0 0 0 989 1006 1015 1018 1014 1009 1009 1008 1007 1005 1005 1006 1006 1007 1007 1008 1007 1007 1007 1007 1007 1008 1008 1007 1006 1006 1006 1006 1005 1004 1005 1006 1007 1006 1005 1005 1007 1008 1009 1010 1010 1009 1010 1009 1010 1010 1008 1008 1008 1009 1010 1009 1009 1009 1009 1010 1010 1011 1011 1011 1011 1011 1017 1035 1064 1095 1113 1127 1135 1142 1147 1156 1163 1169 1172 1177 1181 1186 1189 1192 1193 1192 1193 1192 1193 1194 1196 1198 1199 1200 1202 1203 1204 1204 1202 1201 1201 1202 1205 1205 1206 1206 1206 1207 1205 1204 1202 1203 1206 1207 1205 1204 1206 1206 1205 1203 1204 1204 1204 1206 1204 1204 1202 1204 1203 1204 1204 1203 1203 1202 1200 1199 1199 1201 1201 1201 1201 1202 1201 1201 1201 1202 1203 1203 1203 1202 1202 1200 1201 1201 1202 1203 1201 1200 1200 1201 1202 1203 1203 1200 1200 1200 1201 1200 1199 1199 1199 1200 1200 1199 1199 1198 1198 1196 1198 1198 1200 1199 1200 1199 1201 1199 1199 1200 1202 1201 1199 1197 1198 1197 1198 1199 1200 1200 1200 1198 1198 1198 1201 1201 1199 1198 1197 1197 1196 1196 1196 1197 1198 1197 1198 1197 1197 1197 1197 1199 1198 1200 1199 1198 1197 1198 1199 1199 1199 1199 1198 1199 1199 1199 1197 1199 1198 1199 1198 1199 1198 1198 1198 1199 1199 1199 1200 1200 1200 1201 1201 1200 1198 1198 1198 1200 1199 1198 1198 1198 1199 1199 1198 1198 1198 1197 1196 1197 1198 1199 1199 1200 1200 1200 1199 1198 1198 1199 1200 1201 1201 1201 1201 1202 1202 1202 1200 1200 1199 1199 1199 1200 1200 1198 1197 1198 1199 1201 1202 1204 1204 1202 1201 1200 1199 1200 1201 1202 1200 1201 1202 1202 1200 1200 1200 1201 1203 1203 1201 1201 1201 1202 1202 1202 1203 1203 1203 1202 1202 1201 1202 1202 1203 1204 1204 1203 1202 1203 1203 1204 1203 1203 1203 1203 1203 1202 1204 1203 1203 1201 1202 1202 1202 1204 1204 1207 1205 1205 1203 1203 1204 1206 1206 1206 1207 1205 1205 1205 1206 1207 1205 1207 1206 1207 1207 1209 1209 1210 1210 1210 1209 1208 1208 1208 1207 1208 1209 1210 1210 1210 1210 1208 1209 1209 1210 1210 1210 1211 1211 1211 1209 1207 1206 1206 1207 1208 1208 1207 1206 1209 1211 1211 1209 1206 1205 1202 1200 1198 1195 1191 1188 1185 1181 1179 1176 1173 1169 1164 1159 1155 1152 1152 1148 1145 1140 1137 1134 1130 1126 1118 1095 1062 1038 1029 1025 1024 1024 1024 0 0 0 0 1747 1750 1779 1768 1714 1722 1739 1751 1753 1747 1743 1760 1778 1732 1735 0
    0 1039 1040 1039 1044 1047 1056 0 0 0 0 1746 1766 0 0 1698 1756 1760 0 0 0 0 0 0 0 0 0 0 1733 0 1018 1037 0 0 0 0 0 0 0 0 0 0 0 0 0 0 0 0 1015 1015 1021 1017 1010 1007 1007 1006 1005 1005 1004 1006 1006 1008 1008 1008 1007 1006 1006 1007 1007 1007 1007 1007 1007 1007 1008 1007 1007 1006 1006 1006 1007 1006 1007 1006 1007 1007 1008 1010 1010 1008 1009 1009 1010 1011 1010 1011 1010 1009 1009 1009 1010 1010 1009 1010 1010 1013 1012 1012 1011 1012 1017 1035 1065 1096 1113 1127 1137 1144 1149 1157 1163 1169 1172 1177 1182 1186 1190 1193 1195 1194 1194 1193 1194 1195 1195 1197 1199 1202 1204 1205 1205 1205 1204 1203 1201 1202 1204 1205 1205 1206 1206 1206 1205 1205 1204 1205 1206 1206 1204 1204 1206 1206 1206 1204 1204 1204 1205 1206 1205 1202 1202 1204 1204 1204 1204 1205 1204 1204 1202 1201 1200 1202 1200 1202 1201 1202 1201 1201 1201 1201 1203 1204 1204 1202 1201 1201 1201 1203 1203 1202 1200 1199 1199 1200 1201 1202 1202 1200 1201 1201 1201 1199 1198 1198 1199 1200 1201 1201 1200 1199 1198 1196 1197 1199 1200 1200 1201 1201 1202 1200 1200 1200 1202 1202 1200 1199 1199 1199 1200 1200 1200 1199 1199 1199 1199 1200 1201 1201 1200 1199 1199 1198 1197 1196 1196 1197 1198 1198 1199 1199 1199 1198 1199 1200 1199 1199 1199 1199 1199 1200 1201 1201 1199 1199 1199 1199 1199 1199 1197 1197 1196 1197 1197 1198 1198 1199 1200 1200 1199 1200 1200 1201 1201 1201 1202 1199 1198 1197 1199 1200 1200 1199 1200 1199 1199 1199 1199 1201 1199 1199 1197 1199 1198 1200 1199 1200 1200 1201 1200 1199 1199 1200 1201 1201 1202 1201 1200 1200 1200 1201 1200 1201 1200 1200 1201 1202 1200 1199 1198 1198 1199 1200 1201 1202 1203 1202 1201 1201 1200 1201 1201 1201 1201 1201 1201 1202 1200 1200 1199 1200 1202 1202 1201 1202 1201 1202 1201 1202 1202 1202 1202 1201 1202 1201 1202 1202 1203 1203 1203 1204 1203 1204 1203 1204 1204 1204 1204 1204 1204 1203 1203 1203 1203 1202 1203 1203 1202 1204 1205 1207 1206 1205 1203 1204 1205 1206 1206 1205 1206 1204 1204 1206 1206 1207 1205 1205 1204 1205 1206 1208 1208 1209 1209 1208 1207 1208 1208 1208 1208 1208 1209 1210 1210 1210 1211 1210 1210 1210 1210 1210 1210 1210 1210 1210 1209 1208 1207 1206 1207 1208 1208 1207 1207 1210 1211 1212 1210 1208 1205 1202 1200 1198 1195 1192 1188 1185 1182 1180 1177 1175 1169 1164 1160 1158 1155 1152 1148 1144 1140 1137 1135 1132 1128 1119 1095 1062 1037 1029 1025 1024 1025 1027 1015 0 0 0 1716 1752 1764 1750 1775 1736 1730 1755 1756 1743 1744 1752 1761 1744 1734 0
    0 1035 1037 1038 1045 1051 1061 1055 0 0 1745 1747 0 0 0 0 1734 1739 0 0 0 0 0 0 0 0 0 0 0 0 0 0 1071 0 0 0 0 0 0 0 0 0 0 0 0 0 0 0 1026 1015 1018 1016 1011 1008 1007 1006 1006 1006 1006 1006 1007 1008 1008 1007 1007 1006 1006 1006 1007 1006 1006 1007 1006 1006 1006 1006 1007 1007 1007 1006 1007 1006 1007 1008 1008 1009 1008 1009 1009 1008 1008 1009 1010 1010 1011 1012 1011 1009 1009 1009 1010 1010 1011 1011 1012 1013 1012 1010 1011 1012 1019 1036 1066 1097 1114 1127 1137 1144 1149 1157 1162 1168 1172 1178 1184 1188 1192 1195 1196 1196 1195 1195 1195 1196 1196 1198 1200 1202 1203 1203 1204 1205 1205 1205 1204 1204 1204 1204 1204 1204 1205 1206 1205 1204 1204 1205 1206 1203 1202 1203 1205 1206 1206 1204 1204 1205 1207 1208 1205 1203 1204 1204 1204 1203 1204 1206 1205 1206 1204 1203 1202 1202 1200 1201 1201 1201 1201 1202 1203 1203 1204 1203 1203 1202 1201 1201 1200 1202 1203 1203 1201 1200 1200 1201 1202 1201 1201 1199 1200 1200 1200 1199 1199 1199 1200 1201 1201 1200 1200 1200 1199 1198 1198 1200 1201 1200 1199 1200 1201 1202 1202 1201 1202 1201 1200 1199 1199 1198 1199 1199 1199 1199 1199 1198 1199 1201 1201 1200 1199 1198 1198 1197 1197 1197 1197 1198 1199 1198 1198 1198 1198 1198 1199 1200 1198 1198 1200 1200 1200 1200 1200 1200 1199 1199 1199 1198 1198 1198 1198 1198 1197 1196 1197 1198 1199 1199 1200 1201 1199 1199 1198 1199 1201 1202 1203 1201 1199 1198 1198 1199 1201 1200 1200 1198 1198 1198 1200 1202 1202 1202 1200 1200 1198 1199 1199 1201 1201 1201 1200 1199 1199 1199 1200 1200 1201 1200 1201 1202 1200 1200 1199 1200 1200 1202 1202 1202 1201 1201 1200 1200 1200 1199 1201 1201 1202 1200 1199 1200 1199 1201 1201 1203 1201 1203 1203 1203 1201 1201 1200 1201 1201 1202 1201 1202 1202 1204 1202 1201 1201 1201 1202 1203 1203 1202 1202 1202 1203 1203 1202 1203 1202 1203 1201 1202 1203 1204 1205 1205 1204 1202 1203 1204 1205 1204 1204 1203 1203 1203 1204 1206 1206 1205 1204 1205 1206 1207 1207 1204 1204 1203 1204 1205 1206 1207 1205 1204 1204 1206 1207 1208 1209 1209 1207 1207 1207 1208 1209 1208 1208 1208 1209 1209 1209 1210 1211 1211 1211 1210 1210 1211 1211 1212 1211 1211 1210 1209 1208 1207 1208 1208 1208 1207 1207 1209 1211 1211 1210 1208 1205 1202 1199 1197 1194 1192 1189 1186 1184 1182 1179 1176 1171 1166 1162 1159 1156 1153 1149 1146 1144 1140 1137 1132 1129 1118 1095 1063 1037 1029 1025 1024 1023 1028 0 0 0 0 1747 1744 1742 1746 1762 1734 1739 1752 1751 1760 1751 1755 1765 1786 1773 0
    0 1037 1037 1037 1041 1045 1053 0 0 0 0 1746 1771 0 0 1713 1738 1779 1771 1749 1739 0 0 1720 0 0 0 0 0 0 0 0 1024 0 0 1696 0 0 1701 1746 0 0 1730 1734 1747 0 0 1022 1019 1009 1010 1010 1007 1006 1006 1005 1006 1006 1007 1007 1008 1009 1008 1007 1007 1007 1007 1007 1007 1006 1006 1007 1007 1006 1006 1007 1008 1010 1009 1008 1006 1008 1008 1010 1010 1011 1009 1009 1009 1009 1008 1009 1009 1011 1011 1012 1011 1010 1008 1008 1008 1011 1011 1013 1013 1014 1012 1010 1010 1011 1017 1035 1066 1099 1116 1129 1138 1144 1150 1157 1163 1168 1173 1179 1184 1187 1191 1194 1196 1196 1194 1195 1195 1196 1196 1200 1201 1203 1203 1204 1205 1206 1206 1206 1205 1205 1205 1204 1203 1204 1205 1206 1206 1205 1206 1205 1206 1204 1203 1202 1204 1206 1206 1205 1204 1206 1207 1208 1205 1203 1205 1206 1205 1204 1204 1206 1205 1205 1204 1203 1202 1201 1201 1202 1202 1201 1201 1201 1202 1202 1204 1203 1202 1201 1200 1201 1200 1202 1202 1202 1201 1199 1199 1199 1200 1199 1198 1198 1199 1200 1200 1199 1200 1201 1202 1202 1201 1201 1199 1201 1200 1200 1200 1201 1201 1201 1200 1200 1200 1201 1202 1200 1200 1200 1201 1201 1200 1199 1197 1198 1198 1198 1198 1198 1200 1202 1202 1200 1198 1198 1197 1198 1199 1199 1199 1198 1198 1199 1199 1199 1198 1198 1199 1199 1198 1198 1200 1200 1201 1200 1201 1200 1199 1199 1198 1197 1197 1198 1198 1198 1198 1197 1198 1199 1200 1200 1201 1200 1200 1199 1199 1199 1201 1203 1203 1202 1201 1198 1198 1198 1201 1200 1200 1199 1199 1200 1201 1202 1202 1203 1202 1200 1198 1198 1199 1201 1202 1201 1201 1201 1199 1198 1198 1197 1199 1199 1200 1200 1200 1200 1198 1199 1200 1202 1202 1201 1200 1200 1200 1200 1200 1199 1199 1200 1200 1200 1199 1201 1200 1202 1202 1202 1200 1201 1202 1203 1201 1201 1201 1202 1202 1201 1200 1201 1202 1203 1202 1201 1200 1200 1201 1203 1203 1203 1202 1202 1203 1203 1203 1203 1203 1203 1202 1203 1204 1204 1204 1204 1204 1203 1204 1205 1205 1204 1204 1204 1204 1204 1204 1204 1203 1204 1203 1205 1205 1207 1207 1205 1203 1204 1204 1207 1207 1208 1207 1205 1205 1205 1207 1207 1208 1208 1207 1206 1207 1207 1208 1208 1208 1208 1209 1208 1209 1209 1210 1210 1210 1210 1210 1211 1211 1212 1211 1211 1210 1209 1208 1209 1209 1208 1206 1205 1206 1208 1211 1211 1209 1208 1206 1203 1200 1199 1196 1193 1189 1187 1184 1182 1179 1176 1172 1167 1164 1161 1158 1155 1151 1147 1143 1139 1136 1132 1129 1118 1094 1061 1035 1028 1024 1022 1021 1025 0 0 0 0 1740 1721 1715 1742 1750 1754 1740 1757 1765 1771 1748 1758 1780 1769 1763 0
    0 1037 1037 1037 1042 1047 1055 1034 0 0 0 0 0 0 0 1705 0 1765 1747 1752 0 0 1722 1732 0 0 0 1754 1771 0 0 0 1025 0 1725 1708 1705 1718 1726 1727 1738 1727 1712 1722 1751 0 0 1032 1002 997 998 1005 1006 1006 1006 1006 1006 1007 1008 1008 1008 1009 1008 1007 1007 1007 1006 1006 1006 1005 1006 1007 1008 1007 1007 1008 1009 1011 1010 1009 1007 1008 1008 1010 1010 1011 1009 1008 1008 1009 1008 1007 1008 1009 1009 1010 1010 1010 1009 1009 1009 1012 1013 1013 1013 1013 1010 1009 1010 1011 1016 1033 1065 1099 1116 1129 1137 1145 1151 1156 1162 1169 1174 1179 1185 1189 1192 1194 1195 1194 1194 1195 1196 1198 1198 1201 1202 1203 1203 1203 1203 1204 1204 1204 1205 1205 1205 1205 1204 1205 1205 1205 1204 1204 1204 1203 1205 1205 1204 1202 1203 1205 1206 1206 1204 1207 1208 1209 1206 1205 1205 1205 1204 1203 1202 1202 1203 1203 1204 1202 1202 1201 1201 1202 1203 1202 1201 1201 1202 1203 1202 1203 1202 1202 1201 1201 1201 1202 1202 1202 1202 1200 1200 1198 1199 1199 1199 1199 1199 1200 1200 1201 1200 1201 1202 1202 1201 1200 1199 1201 1202 1202 1201 1202 1201 1201 1199 1199 1200 1201 1202 1201 1201 1201 1200 1200 1199 1199 1196 1197 1198 1198 1197 1197 1199 1202 1202 1199 1197 1196 1197 1198 1198 1199 1198 1198 1196 1197 1197 1199 1199 1199 1198 1198 1198 1200 1200 1201 1199 1199 1199 1200 1199 1200 1198 1199 1199 1200 1200 1199 1198 1198 1199 1199 1200 1200 1200 1200 1199 1201 1200 1201 1200 1202 1201 1201 1201 1199 1198 1198 1200 1201 1200 1198 1198 1200 1201 1201 1201 1203 1201 1200 1198 1198 1199 1201 1202 1202 1201 1200 1199 1199 1198 1198 1199 1200 1201 1202 1201 1199 1198 1199 1200 1200 1200 1199 1200 1200 1200 1201 1201 1200 1199 1200 1199 1200 1200 1201 1200 1203 1203 1203 1199 1201 1201 1203 1201 1202 1201 1203 1202 1202 1202 1204 1204 1204 1203 1202 1201 1202 1202 1205 1204 1204 1203 1202 1202 1203 1203 1201 1201 1202 1202 1203 1204 1204 1203 1203 1204 1204 1205 1206 1206 1204 1204 1205 1206 1206 1206 1205 1204 1204 1205 1206 1207 1207 1208 1207 1205 1206 1205 1207 1208 1208 1207 1206 1207 1207 1208 1208 1209 1208 1207 1207 1207 1207 1207 1208 1210 1209 1210 1209 1210 1210 1210 1210 1211 1211 1211 1211 1210 1211 1210 1210 1209 1208 1209 1208 1208 1207 1206 1206 1207 1208 1212 1211 1210 1208 1206 1204 1201 1200 1197 1193 1190 1188 1185 1181 1178 1176 1173 1168 1165 1160 1159 1158 1154 1148 1143 1139 1137 1132 1129 1119 1096 1062 1035 1029 1023 1022 1020 1023 0 0 0 0 1739 1714 1712 1748 1783 1785 1739 1775 1741 1740 1742 1756 1767 1756 1731 0
    0 1041 1039 1038 1039 1045 1048 0 0 0 0 0 0 0 0 1749 1722 0 1746 0 0 1717 1745 0 1710 0 0 0 0 0 0 0 0 0 0 1719 1723 1737 1730 1737 1748 1744 1724 1740 1759 0 0 0 1025 1004 997 1001 1003 1004 1005 1006 1007 1008 1008 1008 1007 1008 1007 1007 1007 1008 1007 1006 1006 1006 1007 1008 1009 1008 1007 1008 1009 1010 1010 1008 1007 1007 1008 1009 1010 1010 1008 1007 1008 1009 1009 1009 1009 1011 1010 1011 1011 1011 1009 1008 1009 1010 1011 1011 1011 1012 1011 1012 1012 1012 1016 1033 1065 1098 1115 1128 1138 1147 1152 1158 1164 1170 1175 1179 1183 1188 1193 1195 1196 1195 1193 1195 1196 1199 1200 1202 1203 1203 1202 1202 1203 1205 1206 1206 1205 1206 1207 1207 1206 1206 1206 1206 1204 1204 1204 1203 1206 1206 1206 1203 1203 1205 1206 1205 1205 1206 1208 1208 1207 1205 1206 1205 1204 1204 1204 1204 1204 1204 1204 1203 1203 1202 1202 1203 1204 1202 1202 1201 1203 1203 1203 1202 1201 1200 1201 1201 1201 1202 1203 1202 1202 1201 1202 1200 1200 1199 1199 1200 1200 1201 1202 1202 1201 1200 1202 1203 1202 1200 1199 1200 1201 1201 1201 1201 1201 1203 1201 1200 1199 1200 1201 1201 1200 1201 1199 1200 1199 1200 1199 1198 1199 1199 1199 1199 1200 1201 1201 1199 1197 1197 1198 1199 1198 1198 1198 1199 1197 1196 1197 1199 1200 1199 1198 1197 1198 1200 1200 1200 1199 1199 1199 1200 1200 1200 1199 1200 1200 1202 1201 1200 1200 1199 1200 1199 1200 1200 1199 1198 1199 1201 1202 1202 1201 1201 1200 1199 1200 1199 1199 1198 1199 1200 1200 1199 1199 1201 1201 1200 1201 1202 1201 1201 1199 1200 1199 1201 1201 1201 1201 1201 1200 1201 1201 1199 1198 1199 1200 1201 1201 1200 1198 1198 1199 1199 1199 1198 1200 1199 1201 1201 1202 1200 1200 1199 1199 1200 1199 1201 1202 1203 1203 1201 1199 1199 1200 1201 1201 1201 1202 1203 1203 1204 1203 1205 1204 1204 1203 1202 1201 1202 1203 1205 1204 1203 1204 1204 1204 1202 1203 1202 1203 1204 1204 1203 1204 1204 1203 1203 1204 1205 1205 1205 1205 1204 1205 1205 1207 1206 1207 1205 1204 1203 1205 1206 1207 1207 1207 1207 1207 1207 1207 1209 1209 1210 1209 1208 1207 1207 1208 1208 1209 1208 1208 1209 1208 1207 1206 1209 1211 1212 1211 1209 1210 1211 1211 1211 1211 1212 1211 1211 1210 1211 1209 1209 1209 1210 1210 1208 1207 1206 1206 1206 1206 1208 1211 1213 1211 1209 1206 1203 1201 1199 1197 1194 1190 1188 1185 1182 1180 1176 1174 1168 1165 1161 1159 1157 1153 1147 1142 1137 1136 1133 1129 1121 1098 1064 1036 1028 1021 1020 1018 1024 1026 0 0 1760 1750 1732 1745 1778 1789 1776 1777 1759 1739 1740 1747 1734 1713 1726 1752 0
    0 1041 1043 1041 1045 1049 0 0 0 0 0 0 0 0 0 0 1738 1712 0 1716 1729 1719 0 1711 1699 0 0 0 0 1740 1738 0 0 0 0 0 1739 1749 1737 1745 1757 1757 1753 1738 1732 0 0 0 1037 1010 998 1004 1005 1004 1005 1006 1008 1009 1008 1009 1008 1007 1007 1008 1008 1008 1007 1006 1006 1007 1007 1008 1008 1008 1008 1008 1008 1009 1009 1008 1007 1006 1007 1008 1009 1009 1009 1008 1010 1010 1009 1009 1009 1011 1010 1010 1011 1011 1010 1008 1010 1010 1012 1010 1010 1010 1010 1012 1012 1013 1017 1035 1067 1097 1114 1127 1138 1146 1151 1157 1164 1170 1175 1179 1184 1189 1194 1196 1198 1196 1192 1193 1196 1198 1199 1201 1203 1203 1203 1201 1203 1204 1206 1206 1205 1206 1207 1207 1207 1206 1205 1205 1204 1205 1206 1205 1206 1205 1206 1205 1205 1206 1207 1206 1205 1205 1207 1207 1208 1206 1206 1205 1204 1203 1203 1204 1205 1205 1204 1203 1204 1203 1203 1203 1204 1203 1203 1202 1204 1204 1205 1204 1203 1202 1203 1203 1203 1203 1203 1202 1202 1203 1204 1203 1202 1201 1201 1201 1201 1201 1202 1202 1200 1200 1201 1202 1201 1198 1197 1198 1201 1200 1199 1200 1200 1202 1199 1200 1198 1201 1201 1202 1200 1199 1198 1198 1197 1199 1199 1199 1199 1200 1201 1200 1199 1200 1199 1199 1198 1198 1199 1199 1199 1198 1197 1198 1198 1197 1198 1199 1200 1200 1199 1199 1199 1200 1200 1199 1198 1199 1199 1199 1200 1200 1201 1201 1202 1203 1202 1200 1200 1200 1202 1200 1201 1199 1199 1198 1197 1199 1199 1200 1199 1199 1198 1198 1198 1199 1199 1199 1199 1200 1199 1198 1198 1199 1200 1201 1202 1201 1200 1200 1200 1200 1198 1199 1199 1201 1200 1200 1199 1200 1202 1202 1201 1200 1201 1202 1201 1200 1197 1197 1197 1198 1199 1199 1199 1199 1201 1201 1202 1200 1200 1200 1200 1200 1200 1200 1201 1202 1203 1202 1201 1201 1202 1203 1201 1201 1201 1202 1201 1202 1203 1205 1204 1204 1204 1203 1202 1202 1204 1206 1204 1204 1204 1205 1205 1203 1204 1203 1204 1204 1204 1204 1204 1204 1204 1204 1204 1204 1203 1205 1204 1204 1204 1205 1206 1206 1208 1206 1205 1204 1205 1206 1208 1207 1207 1207 1208 1207 1206 1207 1207 1208 1208 1207 1206 1206 1207 1209 1208 1208 1207 1209 1209 1209 1208 1210 1212 1213 1212 1211 1212 1212 1212 1211 1211 1213 1213 1214 1212 1212 1210 1210 1210 1210 1210 1208 1206 1206 1207 1207 1207 1208 1212 1213 1212 1210 1207 1202 1200 1199 1197 1194 1190 1188 1185 1182 1178 1176 1173 1170 1164 1160 1157 1156 1152 1147 1142 1139 1137 1134 1130 1123 1101 1068 1039 1029 1022 1020 1018 1023 1034 0 1755 1746 1745 1755 1758 1767 1766 1766 1763 1772 1767 1759 1763 1722 1705 1749 1712 0
    0 1042 1044 1044 1046 1050 0 0 0 0 0 0 0 0 1655 1720 1727 0 1704 1726 1732 0 0 1745 1688 0 0 0 1713 1753 1766 1774 0 0 0 1736 1730 1724 1743 1759 1750 1745 1738 1734 1685 0 0 0 1021 1019 1011 1010 1005 1004 1005 1007 1008 1008 1008 1008 1008 1007 1006 1007 1008 1008 1008 1007 1008 1008 1008 1007 1006 1007 1007 1007 1008 1008 1009 1008 1007 1006 1007 1008 1009 1009 1009 1010 1010 1010 1009 1010 1010 1011 1011 1011 1010 1009 1008 1007 1009 1010 1011 1009 1009 1009 1011 1013 1014 1015 1019 1038 1068 1097 1115 1127 1137 1144 1150 1158 1165 1171 1176 1181 1185 1189 1193 1196 1198 1197 1194 1194 1195 1197 1198 1201 1203 1204 1204 1204 1205 1206 1207 1208 1206 1205 1206 1207 1206 1205 1205 1206 1206 1205 1205 1205 1206 1205 1206 1205 1205 1206 1208 1208 1207 1205 1207 1206 1208 1205 1205 1203 1202 1203 1204 1205 1205 1205 1204 1204 1205 1205 1204 1204 1205 1204 1204 1203 1204 1205 1206 1203 1202 1201 1203 1203 1201 1202 1202 1202 1201 1201 1203 1204 1203 1203 1202 1201 1201 1201 1202 1202 1201 1200 1201 1202 1202 1200 1198 1199 1200 1199 1198 1198 1200 1201 1200 1200 1199 1201 1201 1202 1200 1199 1197 1197 1197 1200 1200 1200 1199 1199 1200 1200 1199 1199 1199 1198 1198 1199 1200 1199 1199 1199 1199 1199 1200 1199 1200 1199 1200 1199 1200 1198 1199 1199 1200 1199 1199 1200 1199 1199 1199 1200 1202 1201 1201 1201 1201 1200 1200 1200 1201 1201 1202 1200 1200 1199 1199 1199 1198 1199 1199 1199 1199 1199 1199 1200 1201 1201 1200 1200 1200 1198 1199 1199 1201 1201 1202 1201 1201 1201 1201 1200 1199 1198 1198 1200 1200 1201 1199 1200 1201 1202 1202 1201 1201 1201 1201 1201 1198 1197 1197 1200 1201 1201 1199 1199 1201 1202 1201 1200 1200 1201 1201 1200 1201 1200 1200 1200 1201 1202 1202 1202 1202 1202 1201 1201 1202 1202 1202 1202 1202 1202 1202 1202 1202 1202 1201 1202 1203 1204 1203 1204 1205 1205 1204 1203 1204 1206 1206 1206 1205 1205 1205 1204 1204 1205 1205 1204 1204 1204 1204 1204 1204 1204 1205 1206 1206 1205 1204 1203 1203 1204 1206 1206 1206 1205 1206 1207 1207 1206 1206 1207 1207 1207 1207 1207 1208 1208 1207 1207 1208 1211 1209 1209 1209 1210 1211 1212 1212 1211 1211 1212 1212 1210 1210 1211 1212 1212 1212 1212 1211 1211 1210 1210 1210 1209 1207 1207 1207 1206 1206 1209 1212 1212 1212 1210 1207 1203 1202 1200 1197 1193 1189 1188 1185 1184 1179 1176 1173 1171 1166 1160 1156 1154 1151 1147 1143 1140 1137 1134 1130 1124 1101 1068 1039 1028 1023 1021 1021 1024 1034 0 0 1743 1736 1757 1752 1753 1752 1755 1756 1767 1749 1756 1745 1752 1727 0 1785 0
    0 1041 1042 1044 1047 1049 0 0 0 0 0 0 0 1752 1678 1697 1709 1717 1754 1704 0 0 1757 0 0 0 0 0 1712 1725 1757 0 0 0 0 1717 1720 1701 1718 1764 1754 1709 1716 1721 1675 0 0 0 1004 1015 1016 1015 1006 1005 1005 1006 1007 1007 1007 1008 1008 1006 1007 1008 1009 1007 1008 1008 1008 1008 1008 1007 1006 1006 1006 1008 1008 1009 1009 1009 1008 1008 1008 1008 1009 1009 1010 1010 1010 1009 1008 1009 1009 1011 1009 1009 1008 1008 1008 1009 1012 1012 1013 1010 1009 1008 1009 1011 1012 1014 1020 1038 1068 1098 1116 1128 1137 1144 1152 1159 1164 1170 1175 1181 1185 1188 1192 1195 1199 1198 1196 1195 1196 1198 1199 1200 1202 1202 1203 1205 1206 1206 1206 1206 1205 1205 1206 1207 1206 1204 1205 1206 1207 1206 1206 1205 1204 1204 1205 1205 1206 1206 1209 1208 1207 1204 1206 1205 1204 1203 1202 1202 1202 1202 1203 1203 1203 1203 1203 1203 1204 1204 1204 1204 1205 1204 1204 1204 1205 1204 1205 1203 1203 1203 1204 1204 1203 1202 1202 1201 1201 1201 1201 1202 1203 1203 1202 1201 1200 1199 1200 1201 1202 1202 1202 1202 1201 1199 1199 1200 1200 1199 1198 1199 1200 1201 1200 1199 1199 1199 1200 1200 1199 1199 1198 1198 1197 1199 1200 1200 1200 1200 1199 1199 1199 1199 1198 1197 1198 1199 1200 1199 1201 1200 1200 1199 1200 1200 1199 1199 1198 1199 1199 1199 1199 1199 1199 1199 1200 1200 1199 1198 1200 1201 1203 1202 1202 1201 1200 1199 1199 1199 1200 1200 1201 1202 1202 1201 1200 1199 1198 1198 1198 1198 1199 1200 1200 1200 1201 1202 1201 1200 1200 1199 1199 1199 1200 1201 1201 1201 1200 1200 1200 1199 1198 1198 1198 1199 1199 1200 1199 1200 1200 1201 1202 1201 1201 1201 1201 1201 1200 1199 1199 1202 1202 1203 1199 1200 1200 1202 1200 1201 1201 1202 1201 1201 1201 1201 1200 1200 1200 1202 1202 1203 1204 1204 1202 1201 1201 1201 1201 1201 1202 1202 1202 1203 1203 1203 1202 1202 1202 1204 1204 1205 1204 1204 1203 1203 1204 1205 1205 1204 1205 1206 1205 1204 1204 1205 1204 1203 1202 1203 1203 1204 1204 1204 1205 1206 1206 1205 1203 1203 1203 1204 1206 1206 1206 1206 1206 1206 1206 1206 1206 1205 1205 1206 1208 1208 1208 1207 1206 1207 1208 1211 1210 1209 1209 1210 1210 1211 1212 1211 1211 1210 1211 1210 1210 1210 1212 1212 1210 1211 1211 1211 1210 1209 1209 1209 1208 1208 1208 1207 1208 1211 1213 1213 1212 1211 1209 1205 1202 1202 1198 1195 1190 1188 1185 1183 1178 1175 1173 1171 1166 1161 1157 1155 1152 1149 1144 1142 1138 1135 1132 1125 1104 1068 1039 1029 1025 1025 1024 1026 1036 0 0 0 1752 1737 1753 1735 1740 1755 1756 1744 1743 1736 1742 1741 1733 1750 1737 0
    0 1038 1039 1043 1047 1052 0 0 0 0 0 0 0 1763 0 1711 1699 1720 1752 1718 1690 1712 1735 1734 1735 0 0 0 0 1707 0 0 0 0 0 1715 1693 1699 1720 1771 1743 1711 1704 1702 1692 0 0 1027 1005 1006 1015 1013 1006 1006 1005 1006 1005 1006 1007 1007 1007 1006 1008 1008 1009 1008 1009 1008 1008 1007 1006 1006 1006 1007 1006 1008 1009 1010 1008 1008 1007 1008 1009 1009 1010 1009 1010 1010 1011 1009 1008 1008 1008 1010 1009 1009 1008 1008 1007 1009 1011 1013 1013 1012 1010 1009 1009 1011 1013 1015 1021 1038 1066 1098 1117 1129 1137 1145 1152 1160 1165 1171 1175 1181 1185 1189 1193 1197 1200 1200 1198 1195 1197 1200 1202 1202 1202 1202 1202 1204 1205 1205 1204 1206 1206 1207 1206 1207 1207 1206 1206 1206 1207 1205 1205 1203 1203 1205 1205 1206 1205 1206 1208 1208 1209 1207 1209 1207 1205 1203 1203 1203 1204 1205 1206 1205 1203 1203 1203 1203 1203 1203 1204 1204 1204 1203 1204 1204 1205 1204 1204 1203 1203 1203 1203 1203 1203 1202 1203 1203 1202 1201 1200 1200 1202 1202 1202 1200 1200 1200 1201 1202 1203 1203 1204 1203 1203 1201 1201 1201 1200 1200 1200 1201 1201 1201 1202 1200 1200 1199 1199 1199 1198 1199 1198 1199 1199 1201 1201 1201 1201 1200 1199 1199 1200 1200 1199 1199 1200 1200 1201 1200 1200 1199 1200 1200 1200 1199 1199 1199 1199 1199 1198 1199 1200 1199 1199 1199 1200 1200 1200 1200 1201 1201 1202 1202 1201 1200 1199 1199 1199 1200 1200 1201 1201 1201 1201 1202 1202 1200 1200 1199 1200 1199 1200 1199 1200 1200 1202 1202 1200 1199 1200 1200 1200 1200 1201 1201 1201 1201 1202 1201 1200 1200 1199 1199 1198 1199 1199 1200 1199 1200 1201 1201 1201 1201 1201 1201 1201 1202 1201 1201 1201 1203 1203 1203 1200 1201 1201 1202 1200 1200 1200 1202 1202 1202 1203 1202 1201 1199 1200 1202 1203 1204 1204 1204 1202 1202 1202 1203 1202 1202 1201 1201 1201 1203 1203 1203 1202 1202 1203 1204 1205 1204 1203 1203 1202 1202 1203 1204 1204 1203 1205 1205 1204 1204 1204 1205 1204 1204 1204 1204 1204 1204 1204 1205 1206 1207 1206 1204 1202 1202 1203 1204 1205 1205 1206 1205 1205 1205 1205 1206 1206 1206 1207 1207 1209 1209 1209 1208 1207 1208 1210 1210 1210 1208 1208 1209 1209 1210 1211 1211 1210 1209 1209 1209 1209 1209 1210 1210 1210 1210 1211 1213 1212 1210 1209 1209 1209 1210 1209 1208 1208 1210 1213 1213 1212 1210 1208 1207 1204 1202 1197 1196 1191 1189 1185 1183 1178 1175 1173 1170 1166 1163 1159 1156 1152 1149 1145 1141 1138 1135 1132 1124 1103 1067 1039 1028 1025 1025 1026 1030 1039 0 0 1755 1765 1769 1752 1743 1728 1755 1764 1754 1730 1724 1731 1739 1742 1729 1730 0
    0 1040 1041 1044 1047 1049 0 0 0 0 0 1753 0 0 1740 1722 0 1700 0 1738 1701 1709 1727 0 1774 1766 0 0 0 0 0 0 0 0 0 1710 1700 1706 1728 1731 1743 1730 1707 1689 0 0 0 996 998 1012 1015 1012 1006 1006 1005 1006 1006 1006 1007 1007 1008 1007 1010 1009 1009 1008 1010 1009 1008 1007 1007 1007 1007 1007 1007 1009 1009 1009 1007 1007 1008 1008 1008 1008 1010 1010 1011 1010 1011 1010 1010 1009 1009 1009 1009 1009 1009 1010 1010 1010 1012 1012 1012 1011 1010 1009 1009 1011 1012 1014 1020 1038 1066 1098 1116 1129 1138 1146 1153 1159 1164 1170 1175 1181 1185 1189 1194 1199 1202 1201 1197 1195 1197 1200 1203 1203 1204 1202 1202 1202 1205 1205 1205 1206 1206 1207 1207 1207 1207 1206 1206 1205 1206 1206 1209 1209 1208 1206 1206 1206 1206 1206 1206 1205 1206 1207 1208 1207 1205 1204 1203 1205 1205 1206 1206 1205 1204 1203 1201 1202 1202 1203 1202 1204 1203 1203 1203 1204 1206 1204 1206 1204 1205 1203 1203 1202 1203 1203 1203 1204 1203 1203 1200 1199 1201 1202 1202 1200 1200 1201 1202 1202 1203 1202 1203 1202 1202 1201 1200 1202 1201 1203 1201 1202 1201 1201 1201 1200 1200 1198 1197 1197 1197 1199 1198 1201 1200 1201 1200 1202 1201 1201 1199 1199 1200 1199 1199 1199 1200 1199 1200 1201 1200 1199 1199 1199 1200 1199 1198 1199 1199 1199 1198 1199 1199 1198 1199 1199 1200 1200 1200 1201 1201 1202 1201 1200 1200 1201 1200 1200 1199 1199 1198 1199 1200 1201 1200 1200 1199 1200 1200 1200 1200 1200 1200 1199 1198 1200 1200 1201 1200 1199 1200 1200 1200 1201 1200 1200 1199 1200 1201 1201 1200 1199 1198 1198 1197 1198 1199 1199 1200 1200 1200 1200 1200 1201 1202 1202 1201 1201 1201 1200 1201 1202 1201 1201 1199 1200 1200 1201 1200 1199 1199 1201 1202 1202 1203 1202 1201 1200 1200 1201 1202 1203 1203 1203 1202 1203 1202 1202 1202 1202 1201 1201 1201 1203 1204 1203 1202 1203 1205 1206 1206 1204 1203 1203 1202 1202 1203 1204 1204 1202 1204 1205 1206 1208 1211 1210 1206 1204 1202 1204 1203 1204 1203 1204 1206 1207 1206 1205 1204 1205 1205 1207 1206 1207 1206 1207 1205 1204 1203 1205 1207 1207 1208 1207 1208 1208 1207 1207 1208 1209 1211 1211 1210 1208 1208 1209 1210 1211 1211 1211 1210 1209 1209 1210 1210 1210 1209 1210 1210 1211 1211 1212 1212 1211 1211 1211 1210 1209 1209 1208 1208 1210 1212 1214 1213 1211 1209 1207 1203 1202 1198 1196 1191 1188 1184 1181 1178 1175 1172 1170 1166 1164 1160 1158 1153 1151 1146 1143 1140 1138 1133 1124 1101 1068 1040 1029 1025 1025 1026 1030 1029 0 0 1769 1767 1767 1761 1735 1724 1740 1764 1755 1735 1704 1723 1742 1738 1721 1728 0
    0 1040 1042 1044 1049 1045 0 0 0 1762 1794 0 0 0 0 1712 1683 0 0 1700 1754 1699 1710 1746 1772 1781 1760 0 0 0 1767 0 0 0 0 1737 1726 1722 1730 1739 1737 1741 1729 0 0 0 0 967 1011 1016 1016 1013 1009 1009 1007 1007 1006 1005 1006 1006 1007 1007 1009 1009 1008 1008 1009 1009 1008 1007 1007 1008 1008 1008 1008 1010 1010 1009 1008 1007 1008 1008 1009 1009 1010 1009 1009 1009 1009 1010 1010 1009 1008 1008 1008 1009 1010 1010 1011 1012 1011 1011 1009 1009 1009 1009 1010 1011 1012 1014 1020 1038 1066 1098 1115 1128 1136 1145 1151 1158 1164 1170 1177 1183 1186 1189 1194 1200 1203 1201 1197 1194 1195 1199 1202 1203 1204 1202 1203 1204 1205 1205 1203 1205 1206 1206 1207 1207 1206 1205 1206 1205 1205 1208 1215 1220 1219 1213 1208 1205 1204 1205 1206 1206 1207 1209 1209 1208 1205 1205 1205 1206 1206 1207 1207 1207 1205 1204 1202 1203 1202 1204 1203 1202 1201 1201 1202 1202 1204 1204 1205 1205 1204 1202 1201 1202 1203 1204 1203 1204 1204 1204 1201 1200 1201 1201 1201 1200 1201 1203 1203 1204 1203 1202 1202 1202 1203 1201 1200 1202 1202 1203 1201 1202 1201 1201 1202 1201 1201 1200 1200 1199 1199 1199 1198 1201 1200 1202 1200 1201 1200 1199 1199 1200 1200 1201 1200 1200 1200 1200 1200 1201 1200 1199 1199 1200 1200 1198 1198 1199 1200 1200 1199 1200 1200 1199 1199 1199 1200 1200 1200 1201 1202 1201 1200 1199 1199 1201 1201 1201 1200 1200 1199 1200 1200 1202 1200 1200 1200 1201 1201 1201 1201 1200 1200 1199 1199 1200 1200 1200 1201 1200 1201 1200 1200 1200 1201 1201 1200 1200 1201 1201 1200 1200 1199 1198 1198 1197 1198 1198 1200 1200 1201 1200 1201 1201 1201 1200 1201 1201 1200 1199 1200 1201 1200 1199 1198 1199 1199 1199 1198 1198 1199 1200 1201 1202 1203 1203 1202 1201 1201 1201 1202 1202 1202 1202 1201 1201 1202 1202 1203 1202 1201 1201 1201 1202 1202 1202 1202 1204 1204 1205 1205 1204 1203 1203 1202 1202 1203 1203 1204 1202 1203 1205 1211 1217 1224 1224 1215 1208 1205 1206 1205 1205 1203 1204 1205 1206 1206 1205 1205 1205 1205 1207 1207 1207 1207 1206 1203 1202 1203 1206 1207 1208 1209 1208 1207 1208 1209 1209 1210 1210 1211 1210 1209 1208 1208 1209 1210 1211 1211 1211 1211 1211 1211 1210 1210 1209 1209 1210 1212 1212 1212 1211 1212 1212 1211 1211 1210 1209 1208 1207 1207 1209 1212 1213 1212 1210 1209 1207 1203 1202 1199 1196 1191 1188 1184 1181 1178 1176 1173 1171 1166 1164 1160 1158 1153 1151 1147 1144 1141 1139 1133 1123 1100 1068 1042 1030 1025 1023 1025 1029 1031 0 1767 1765 1756 1760 1761 1738 1716 1727 1746 1752 1738 1735 1709 1757 1750 1740 1738 0
    0 1046 1048 1048 1051 1040 0 0 0 0 1786 0 0 0 0 1654 1650 1667 1724 1754 1749 1699 1691 0 1767 0 0 0 0 0 1743 0 0 0 0 1775 1782 1728 1729 1741 1741 1735 1742 0 0 0 0 1005 1010 1013 1017 1015 1011 1009 1007 1007 1007 1005 1006 1005 1006 1006 1008 1009 1008 1008 1009 1009 1008 1008 1008 1009 1009 1008 1007 1008 1009 1009 1008 1008 1008 1009 1009 1009 1008 1008 1009 1009 1009 1009 1009 1009 1009 1009 1010 1010 1010 1010 1011 1012 1012 1011 1010 1009 1008 1008 1009 1011 1012 1012 1020 1039 1068 1097 1112 1125 1135 1145 1151 1157 1164 1171 1178 1184 1188 1190 1195 1200 1202 1200 1197 1196 1197 1198 1201 1202 1203 1202 1203 1204 1205 1205 1204 1204 1205 1205 1208 1207 1207 1206 1207 1206 1209 1216 1232 1240 1237 1222 1212 1205 1204 1204 1205 1205 1204 1205 1205 1205 1204 1203 1205 1205 1206 1205 1205 1206 1205 1204 1201 1202 1204 1205 1204 1204 1202 1203 1203 1203 1203 1203 1204 1204 1203 1202 1201 1202 1202 1203 1203 1203 1203 1203 1201 1200 1200 1201 1201 1200 1200 1202 1202 1202 1201 1200 1200 1201 1201 1200 1199 1200 1201 1201 1200 1201 1201 1202 1201 1200 1201 1200 1200 1200 1200 1200 1199 1200 1200 1201 1201 1201 1200 1199 1199 1200 1200 1201 1200 1200 1198 1198 1199 1200 1199 1199 1199 1199 1199 1198 1198 1199 1199 1199 1199 1199 1199 1199 1199 1200 1200 1200 1200 1201 1201 1201 1199 1199 1199 1200 1200 1200 1199 1199 1197 1198 1199 1201 1200 1200 1201 1202 1201 1200 1200 1200 1200 1199 1200 1200 1201 1201 1202 1201 1201 1200 1200 1199 1199 1199 1199 1199 1200 1200 1200 1200 1200 1198 1198 1198 1198 1198 1200 1200 1200 1200 1200 1200 1200 1200 1199 1199 1199 1199 1199 1199 1200 1199 1198 1198 1198 1199 1199 1200 1200 1200 1200 1201 1202 1202 1201 1201 1201 1200 1201 1201 1201 1201 1201 1202 1202 1202 1203 1202 1202 1202 1202 1203 1201 1202 1201 1202 1202 1203 1204 1205 1204 1204 1203 1203 1203 1203 1202 1201 1202 1206 1217 1231 1242 1250 1233 1215 1206 1204 1204 1204 1203 1203 1203 1206 1205 1206 1205 1205 1205 1207 1207 1209 1208 1207 1205 1205 1206 1208 1208 1208 1208 1207 1207 1207 1208 1209 1210 1210 1210 1210 1209 1209 1209 1210 1211 1212 1212 1212 1212 1212 1213 1212 1212 1210 1210 1211 1212 1212 1211 1209 1210 1212 1212 1211 1209 1208 1207 1205 1206 1208 1212 1214 1213 1211 1209 1207 1204 1203 1199 1197 1191 1188 1185 1182 1180 1178 1176 1173 1167 1163 1160 1158 1154 1150 1146 1143 1141 1139 1133 1124 1101 1070 1042 1031 1026 1025 1025 1031 1026 0 0 1745 1733 1738 1753 1733 1717 1719 1738 1754 1751 1742 1755 1775 1808 1748 0 0
    0 1042 1045 1046 1051 1035 0 0 0 0 0 0 0 1732 0 1680 1685 1685 1730 1761 1754 1732 1682 0 0 0 0 0 0 1712 0 0 0 0 0 0 1780 1734 1735 1743 1746 1737 1719 1743 1736 1732 0 1006 997 1001 1014 1016 1012 1010 1009 1009 1008 1008 1006 1005 1004 1005 1007 1008 1008 1008 1007 1007 1007 1007 1008 1010 1010 1009 1007 1008 1008 1009 1009 1008 1008 1008 1009 1010 1008 1008 1008 1009 1009 1009 1009 1010 1010 1011 1010 1010 1010 1011 1011 1013 1012 1012 1011 1011 1010 1010 1010 1011 1011 1012 1019 1039 1068 1097 1111 1124 1133 1144 1151 1158 1165 1172 1178 1184 1188 1192 1196 1200 1201 1199 1196 1196 1196 1200 1201 1201 1201 1202 1204 1205 1204 1204 1203 1205 1206 1206 1208 1208 1208 1207 1208 1208 1214 1224 1244 1239 1216 1209 1205 1205 1202 1204 1205 1207 1206 1207 1207 1207 1205 1203 1204 1205 1206 1205 1205 1205 1205 1204 1203 1203 1204 1204 1204 1203 1203 1204 1204 1203 1202 1202 1202 1203 1202 1202 1201 1202 1203 1203 1204 1204 1203 1201 1201 1201 1201 1201 1200 1201 1201 1202 1202 1203 1202 1201 1201 1201 1202 1200 1199 1199 1199 1200 1200 1201 1201 1201 1201 1200 1200 1200 1200 1201 1201 1202 1200 1199 1199 1200 1201 1200 1200 1199 1200 1200 1200 1201 1199 1199 1198 1199 1200 1200 1199 1199 1200 1201 1200 1199 1199 1198 1199 1199 1200 1200 1200 1200 1199 1200 1200 1200 1200 1200 1200 1200 1199 1200 1200 1200 1200 1201 1200 1200 1199 1199 1200 1200 1200 1201 1201 1202 1201 1199 1199 1198 1200 1199 1200 1200 1202 1202 1202 1201 1201 1201 1200 1200 1201 1201 1202 1200 1200 1200 1200 1201 1201 1200 1200 1199 1200 1198 1199 1199 1201 1202 1201 1200 1199 1199 1199 1198 1199 1199 1199 1199 1201 1199 1199 1199 1199 1199 1199 1199 1200 1200 1200 1200 1201 1201 1201 1200 1201 1201 1202 1201 1202 1202 1202 1201 1201 1201 1200 1200 1202 1203 1203 1203 1202 1203 1202 1202 1201 1202 1203 1205 1205 1204 1203 1203 1202 1202 1201 1200 1201 1203 1194 1193 1194 1250 1247 1222 1209 1205 1204 1203 1202 1203 1203 1204 1203 1205 1204 1204 1204 1205 1206 1207 1207 1206 1205 1205 1207 1208 1208 1207 1208 1209 1209 1208 1209 1210 1212 1210 1209 1207 1208 1209 1211 1212 1212 1212 1212 1212 1211 1211 1211 1211 1212 1210 1210 1210 1212 1212 1211 1210 1210 1211 1211 1210 1209 1207 1205 1203 1205 1208 1213 1215 1214 1212 1210 1209 1205 1203 1199 1197 1192 1189 1185 1182 1179 1178 1177 1173 1168 1163 1160 1158 1155 1151 1145 1143 1140 1139 1134 1126 1103 1071 1042 1031 1026 1024 1024 1026 1026 0 0 1749 1726 1734 1735 1725 1730 1743 1759 1767 1760 1754 1749 1753 1717 1729 1747 0
    0 1043 1046 1048 1050 1021 0 0 1739 0 1759 0 1761 1762 1739 1733 1750 1741 1723 1793 1785 1748 0 0 1714 1744 0 0 0 0 0 0 0 0 0 1736 1745 1743 1747 1743 1749 1723 1715 1723 0 0 0 0 999 1004 1011 1012 1009 1008 1008 1008 1008 1007 1006 1004 1005 1006 1006 1007 1008 1008 1007 1007 1007 1008 1008 1009 1009 1009 1008 1007 1007 1009 1009 1009 1009 1008 1008 1009 1009 1009 1009 1011 1011 1010 1010 1010 1011 1012 1012 1012 1010 1011 1011 1011 1012 1011 1013 1013 1012 1009 1009 1010 1011 1012 1020 1041 1071 1097 1112 1125 1135 1145 1153 1160 1166 1171 1176 1182 1188 1193 1196 1199 1200 1198 1196 1195 1196 1198 1199 1200 1201 1203 1204 1205 1204 1205 1204 1205 1207 1208 1208 1208 1207 1207 1207 1209 1216 1228 1244 1216 1190 1186 1192 1202 1203 1203 1204 1205 1205 1206 1206 1207 1206 1204 1205 1207 1207 1204 1203 1203 1203 1203 1204 1204 1204 1203 1203 1204 1205 1205 1206 1205 1204 1202 1202 1203 1202 1202 1201 1202 1202 1203 1203 1201 1201 1200 1200 1201 1201 1201 1202 1202 1202 1201 1201 1201 1202 1201 1200 1200 1201 1199 1199 1198 1199 1200 1200 1200 1199 1201 1200 1199 1199 1199 1200 1200 1201 1202 1201 1199 1199 1199 1200 1200 1200 1200 1200 1200 1200 1199 1198 1198 1198 1199 1199 1199 1199 1198 1199 1199 1200 1198 1199 1198 1199 1200 1200 1201 1200 1201 1200 1201 1200 1199 1199 1200 1200 1200 1200 1200 1200 1199 1200 1201 1201 1200 1199 1198 1199 1198 1199 1200 1200 1201 1200 1200 1199 1199 1201 1200 1199 1199 1201 1202 1201 1201 1200 1200 1200 1201 1202 1201 1200 1200 1200 1200 1200 1201 1200 1198 1199 1200 1201 1200 1199 1199 1200 1201 1201 1201 1200 1200 1199 1198 1199 1200 1200 1201 1201 1201 1201 1201 1201 1201 1200 1200 1199 1200 1200 1201 1200 1201 1201 1200 1200 1200 1202 1201 1202 1202 1203 1202 1202 1200 1200 1199 1202 1203 1204 1204 1204 1203 1202 1201 1201 1203 1203 1205 1205 1205 1204 1203 1202 1202 1201 1201 1200 1200 1183 1181 1181 1240 1241 1220 1207 1203 1202 1203 1202 1203 1203 1204 1204 1205 1205 1206 1205 1205 1206 1206 1207 1206 1207 1208 1209 1208 1208 1207 1209 1210 1208 1208 1208 1210 1210 1209 1209 1207 1209 1208 1211 1212 1213 1212 1212 1212 1211 1211 1211 1211 1212 1211 1210 1211 1212 1212 1210 1210 1210 1211 1212 1212 1210 1208 1205 1203 1204 1208 1213 1215 1214 1212 1211 1210 1206 1203 1199 1196 1192 1189 1185 1182 1180 1179 1177 1173 1168 1163 1160 1158 1155 1150 1145 1143 1140 1139 1135 1129 1106 1071 1042 1030 1027 1025 1023 1024 1031 0 0 0 1800 1737 1716 1721 1735 1750 1761 1766 1759 1738 1745 1739 1738 1723 1720 0
    0 1041 1044 1046 1049 1028 0 0 1729 0 0 1752 0 1763 1753 1752 1754 0 1716 1793 1786 1746 0 0 1730 1697 1710 0 0 1737 0 0 0 0 0 1745 1742 1749 1736 1741 1733 1728 1714 1715 1710 0 0 0 1017 1005 1010 1010 1006 1007 1007 1008 1008 1007 1006 1006 1006 1007 1006 1005 1006 1007 1008 1008 1008 1008 1007 1007 1008 1009 1009 1008 1007 1009 1009 1009 1008 1008 1008 1010 1011 1011 1009 1009 1010 1011 1010 1011 1012 1012 1012 1011 1010 1010 1011 1011 1010 1010 1012 1012 1011 1011 1010 1011 1011 1013 1021 1042 1071 1099 1113 1126 1137 1145 1153 1160 1165 1169 1174 1180 1186 1192 1196 1199 1200 1199 1197 1196 1197 1199 1200 1201 1201 1203 1204 1205 1205 1206 1204 1206 1207 1209 1208 1208 1206 1205 1206 1208 1212 1220 1233 1215 1188 0 1189 1200 1204 1205 1206 1206 1207 1207 1209 1209 1209 1207 1207 1207 1205 1203 1201 1202 1203 1204 1204 1203 1203 1202 1202 1202 1202 1203 1204 1204 1204 1203 1203 1203 1202 1202 1201 1204 1204 1204 1201 1200 1200 1201 1203 1203 1202 1202 1202 1201 1202 1202 1202 1202 1203 1202 1201 1200 1201 1200 1200 1200 1200 1201 1200 1201 1200 1201 1201 1200 1200 1200 1202 1201 1202 1202 1201 1199 1199 1198 1198 1199 1199 1200 1200 1200 1199 1199 1198 1199 1200 1201 1202 1201 1200 1198 1199 1199 1200 1198 1199 1199 1200 1201 1201 1201 1200 1201 1202 1202 1200 1198 1197 1198 1198 1199 1199 1199 1199 1198 1200 1200 1202 1200 1200 1199 1199 1199 1199 1199 1199 1199 1200 1201 1200 1199 1200 1200 1200 1199 1200 1200 1200 1201 1201 1200 1200 1200 1201 1201 1201 1201 1199 1199 1200 1201 1200 1198 1198 1199 1201 1201 1200 1199 1200 1202 1202 1201 1201 1201 1201 1200 1200 1199 1200 1200 1201 1201 1201 1201 1201 1200 1200 1200 1199 1199 1200 1200 1199 1199 1202 1201 1201 1200 1201 1201 1202 1203 1203 1202 1202 1201 1201 1202 1203 1203 1203 1203 1203 1203 1203 1203 1202 1203 1203 1204 1203 1203 1204 1203 1203 1203 1201 1201 1200 1198 1184 1181 1183 1229 1223 1213 1205 1205 1204 1205 1202 1203 1203 1204 1204 1206 1207 1208 1206 1206 1205 1205 1205 1204 1206 1206 1208 1207 1208 1207 1209 1209 1210 1209 1210 1210 1210 1209 1209 1208 1208 1208 1211 1212 1213 1213 1211 1212 1211 1211 1210 1210 1211 1211 1210 1211 1211 1211 1210 1211 1211 1211 1210 1210 1209 1207 1204 1203 1203 1207 1212 1215 1213 1212 1211 1210 1206 1202 1198 1194 1193 1191 1187 1182 1179 1177 1174 1171 1166 1163 1160 1158 1155 1150 1146 1142 1140 1139 1137 1131 1110 1074 1044 1032 1027 1024 1022 1024 1032 0 0 1777 1761 1760 1732 1725 1753 1758 1758 1750 1739 1754 1749 1767 1744 1733 1705 0
    0 1043 1046 1051 1054 0 0 0 0 1740 0 1743 1759 1752 1764 0 1780 1738 1719 0 1819 1755 1692 1715 0 1739 0 1771 1762 1723 1756 0 0 0 0 1767 1747 1730 1720 1712 1724 1724 1722 1711 0 0 0 0 1015 1014 1012 1008 1003 1005 1006 1007 1006 1006 1007 1007 1008 1008 1007 1007 1007 1007 1008 1009 1008 1008 1007 1007 1008 1009 1008 1008 1008 1009 1010 1009 1008 1008 1010 1011 1012 1011 1009 1009 1009 1010 1010 1010 1011 1011 1011 1010 1010 1009 1010 1009 1010 1009 1010 1010 1011 1012 1011 1011 1010 1012 1021 1044 1072 1098 1113 1127 1138 1145 1152 1159 1165 1170 1174 1180 1186 1191 1194 1198 1200 1199 1197 1196 1198 1199 1200 1200 1201 1202 1203 1206 1206 1207 1205 1205 1206 1208 1208 1208 1206 1206 1205 1206 1207 1212 1218 1209 1193 1187 1193 1200 1205 1205 1206 1206 1207 1207 1208 1207 1208 1207 1208 1208 1205 1203 1202 1203 1204 1204 1204 1203 1203 1203 1202 1202 1201 1202 1203 1203 1203 1202 1202 1203 1202 1202 1201 1204 1204 1204 1201 1199 1200 1201 1202 1202 1202 1202 1202 1201 1200 1201 1201 1202 1201 1201 1200 1200 1200 1200 1201 1201 1202 1202 1201 1202 1201 1203 1201 1200 1200 1200 1201 1201 1201 1200 1201 1200 1200 1198 1198 1199 1199 1200 1199 1200 1200 1200 1200 1200 1201 1201 1201 1200 1200 1198 1198 1198 1197 1197 1198 1199 1200 1201 1202 1202 1200 1200 1200 1202 1200 1199 1198 1198 1198 1198 1199 1198 1198 1197 1199 1199 1201 1200 1200 1199 1199 1199 1199 1200 1198 1199 1199 1202 1202 1201 1200 1199 1200 1199 1199 1198 1200 1201 1201 1200 1200 1199 1199 1199 1199 1199 1198 1199 1200 1200 1199 1199 1198 1200 1200 1200 1200 1199 1200 1201 1202 1202 1200 1200 1201 1200 1199 1199 1199 1201 1201 1202 1202 1202 1201 1200 1201 1200 1200 1199 1200 1200 1198 1199 1201 1201 1200 1201 1201 1203 1202 1203 1201 1202 1202 1202 1203 1204 1204 1203 1202 1202 1201 1202 1202 1202 1201 1203 1204 1204 1202 1202 1203 1204 1203 1202 1202 1201 1201 1201 1194 1194 1195 1213 1208 1206 1203 1206 1205 1206 1203 1204 1204 1204 1205 1206 1207 1208 1207 1207 1205 1206 1205 1205 1207 1208 1209 1208 1208 1208 1208 1207 1208 1209 1209 1209 1207 1207 1208 1210 1210 1209 1211 1211 1210 1212 1212 1213 1212 1212 1211 1211 1212 1212 1210 1210 1210 1211 1210 1212 1211 1212 1211 1210 1209 1208 1207 1206 1205 1207 1211 1213 1212 1212 1211 1210 1206 1202 1198 1195 1194 1191 1188 1184 1180 1177 1174 1171 1167 1163 1161 1158 1156 1151 1146 1142 1139 1137 1135 1131 1110 1075 1045 1032 1028 1024 1022 1022 1032 0 0 1764 1763 1755 1752 1757 1764 1767 1759 1744 1749 1776 1780 1750 1739 1729 1722 0
    0 1040 1045 1050 1055 0 0 0 0 1734 0 0 0 1741 1785 1800 1802 0 1737 0 0 1700 1679 0 0 1684 0 1811 0 1723 1718 0 0 0 0 1734 1724 1709 1721 1722 1730 1733 1722 1731 0 0 0 1035 1029 1012 1013 1012 1006 1006 1006 1007 1006 1008 1007 1008 1007 1008 1008 1007 1007 1007 1008 1008 1009 1008 1008 1007 1007 1007 1007 1009 1008 1009 1009 1009 1008 1008 1010 1010 1010 1010 1008 1008 1009 1010 1009 1010 1010 1009 1009 1009 1010 1011 1011 1009 1009 1009 1008 1010 1011 1013 1012 1011 1011 1012 1021 1042 1070 1096 1112 1127 1136 1145 1152 1159 1165 1171 1176 1182 1187 1192 1195 1198 1201 1200 1198 1196 1199 1201 1202 1200 1201 1201 1203 1206 1207 1208 1206 1206 1207 1208 1208 1208 1207 1207 1207 1206 1205 1206 1209 1211 1206 1201 1202 1204 1206 1207 1208 1209 1208 1207 1208 1206 1207 1206 1207 1206 1204 1203 1202 1203 1204 1205 1204 1203 1202 1203 1203 1203 1202 1202 1202 1202 1201 1201 1201 1203 1202 1203 1202 1203 1203 1204 1202 1201 1201 1203 1203 1202 1202 1203 1202 1201 1200 1202 1202 1202 1202 1202 1201 1200 1201 1201 1201 1201 1201 1201 1201 1202 1202 1202 1201 1200 1199 1200 1201 1202 1202 1201 1200 1200 1200 1199 1197 1198 1199 1200 1199 1200 1200 1200 1201 1201 1202 1202 1202 1201 1200 1199 1199 1199 1198 1197 1198 1199 1199 1199 1200 1200 1200 1199 1200 1200 1200 1199 1198 1197 1197 1197 1198 1198 1198 1197 1197 1197 1200 1199 1200 1199 1199 1199 1199 1200 1199 1199 1199 1200 1200 1200 1199 1199 1199 1199 1198 1197 1199 1201 1202 1200 1200 1198 1199 1199 1200 1199 1199 1198 1200 1200 1200 1200 1200 1200 1200 1199 1200 1199 1201 1201 1202 1201 1199 1199 1200 1200 1199 1199 1200 1200 1201 1201 1202 1201 1201 1200 1200 1199 1199 1198 1199 1198 1198 1200 1202 1202 1201 1202 1201 1202 1201 1202 1201 1201 1202 1203 1204 1205 1204 1203 1201 1201 1201 1202 1202 1202 1202 1203 1202 1202 1201 1202 1204 1203 1204 1203 1203 1202 1203 1202 1203 1203 1204 1204 1204 1204 1204 1206 1206 1205 1203 1204 1204 1205 1204 1205 1205 1206 1207 1206 1204 1203 1203 1204 1207 1208 1208 1207 1208 1207 1207 1206 1207 1208 1209 1209 1207 1207 1208 1209 1210 1209 1211 1210 1210 1211 1212 1213 1212 1211 1210 1212 1213 1212 1209 1209 1209 1211 1210 1212 1211 1211 1210 1209 1208 1207 1207 1206 1205 1208 1211 1214 1212 1212 1210 1209 1205 1202 1199 1196 1193 1191 1189 1185 1181 1177 1174 1171 1168 1165 1162 1159 1156 1153 1148 1142 1139 1135 1135 1130 1112 1076 1047 1033 1026 1022 1020 1021 1024 0 0 1772 1757 1749 1752 1763 1765 1758 1756 1752 1759 1769 1779 0 1757 1762 1765 0
    0 1040 1045 1052 1055 0 0 0 1769 0 0 0 0 1731 1777 1774 0 1770 1759 1784 1746 1730 0 0 0 0 1713 0 0 0 1732 0 0 1025 0 1745 1729 1732 1736 1759 1766 1734 1730 1727 1757 0 0 0 1026 1014 1017 1014 1007 1007 1006 1006 1006 1007 1007 1008 1007 1009 1009 1009 1009 1008 1008 1008 1008 1009 1008 1008 1007 1007 1008 1008 1008 1008 1009 1009 1009 1009 1011 1010 1009 1010 1009 1010 1010 1011 1009 1009 1008 1009 1009 1009 1010 1010 1011 1009 1009 1009 1009 1010 1012 1013 1012 1010 1010 1011 1019 1040 1068 1094 1112 1127 1137 1146 1154 1160 1166 1173 1177 1183 1186 1190 1193 1198 1201 1199 1196 1195 1197 1199 1200 1200 1201 1203 1204 1207 1208 1208 1207 1206 1206 1207 1208 1207 1208 1209 1209 1206 1204 1203 1205 1205 1205 1203 1204 1205 1206 1206 1207 1206 1207 1207 1208 1205 1204 1203 1203 1204 1204 1204 1205 1205 1206 1207 1206 1205 1204 1204 1203 1203 1203 1203 1202 1202 1201 1201 1201 1203 1203 1202 1201 1200 1200 1201 1202 1202 1202 1202 1202 1201 1201 1202 1202 1202 1201 1202 1201 1202 1201 1202 1201 1200 1200 1200 1200 1200 1200 1201 1201 1202 1200 1202 1200 1200 1199 1199 1199 1200 1201 1201 1200 1200 1200 1199 1198 1199 1200 1200 1200 1200 1200 1200 1201 1201 1201 1201 1200 1199 1200 1199 1200 1199 1198 1198 1199 1199 1198 1198 1198 1200 1200 1199 1198 1199 1199 1199 1199 1199 1198 1197 1198 1199 1199 1198 1197 1198 1200 1200 1199 1198 1199 1200 1201 1201 1200 1199 1199 1199 1200 1201 1201 1201 1199 1199 1197 1197 1198 1200 1201 1200 1200 1199 1199 1199 1200 1199 1199 1198 1199 1199 1199 1199 1199 1200 1200 1199 1199 1199 1200 1201 1202 1201 1199 1198 1197 1198 1199 1200 1201 1200 1200 1200 1201 1201 1201 1200 1200 1198 1199 1198 1199 1198 1199 1200 1201 1201 1201 1203 1202 1203 1201 1202 1200 1199 1201 1203 1204 1204 1203 1202 1200 1200 1202 1202 1202 1201 1201 1202 1201 1203 1202 1203 1203 1203 1204 1203 1204 1203 1203 1203 1202 1202 1203 1203 1204 1204 1203 1204 1204 1205 1204 1204 1204 1204 1204 1204 1205 1205 1206 1206 1204 1203 1203 1205 1207 1208 1208 1207 1207 1208 1207 1206 1206 1208 1209 1210 1207 1207 1207 1208 1209 1208 1209 1208 1209 1210 1211 1211 1211 1211 1210 1210 1212 1212 1211 1210 1211 1211 1211 1211 1210 1211 1209 1209 1209 1209 1208 1206 1205 1207 1211 1214 1212 1211 1210 1209 1206 1203 1201 1197 1193 1190 1188 1186 1183 1179 1175 1172 1169 1166 1163 1159 1156 1152 1148 1143 1140 1136 1135 1129 1110 1076 1046 1031 1025 1021 1020 1022 1019 0 0 1742 1742 1745 1750 1755 1754 1748 1746 1747 1750 1762 1737 1776 1778 1789 1782 0
    0 1038 1044 1047 1053 0 0 0 1764 0 0 0 0 0 1740 1771 1770 1744 0 1755 1780 1708 1750 1770 1762 1711 0 0 0 1753 1723 0 0 0 0 1742 1734 1718 1750 1776 1741 1730 1706 1716 0 0 0 0 1018 1012 1014 1014 1008 1007 1006 1006 1005 1006 1007 1008 1008 1009 1009 1009 1009 1008 1009 1009 1010 1010 1009 1008 1006 1006 1008 1008 1007 1007 1008 1009 1010 1010 1011 1010 1009 1010 1010 1011 1010 1011 1009 1010 1009 1009 1009 1009 1010 1011 1010 1009 1009 1010 1010 1012 1012 1012 1010 1010 1010 1011 1019 1040 1069 1096 1112 1128 1137 1147 1156 1163 1169 1175 1178 1184 1187 1191 1195 1199 1202 1200 1196 1196 1197 1199 1199 1200 1201 1203 1204 1205 1206 1207 1207 1206 1206 1207 1207 1206 1206 1207 1208 1207 1206 1206 1207 1207 1206 1205 1206 1207 1208 1208 1208 1206 1206 1206 1207 1206 1205 1205 1204 1204 1204 1204 1204 1205 1206 1206 1205 1205 1204 1205 1203 1202 1202 1203 1204 1203 1202 1201 1201 1202 1203 1202 1201 1201 1200 1202 1203 1205 1203 1203 1202 1202 1201 1202 1202 1202 1201 1201 1201 1202 1203 1202 1201 1199 1199 1199 1200 1199 1199 1198 1199 1199 1200 1200 1201 1201 1200 1200 1199 1200 1200 1202 1200 1201 1199 1199 1198 1197 1198 1199 1200 1200 1200 1200 1200 1200 1200 1200 1200 1199 1199 1199 1200 1199 1199 1198 1199 1199 1198 1196 1196 1198 1199 1199 1198 1199 1199 1199 1199 1198 1198 1197 1198 1198 1198 1197 1198 1200 1201 1200 1199 1198 1200 1201 1201 1201 1200 1199 1199 1199 1199 1199 1200 1201 1200 1200 1198 1197 1198 1200 1200 1200 1200 1200 1200 1200 1201 1200 1200 1198 1198 1198 1199 1199 1199 1199 1199 1199 1199 1200 1199 1199 1199 1199 1199 1199 1199 1198 1199 1200 1201 1199 1199 1199 1200 1200 1201 1200 1199 1197 1198 1199 1199 1199 1199 1200 1202 1202 1202 1202 1201 1201 1200 1200 1200 1199 1201 1202 1203 1203 1201 1201 1200 1201 1202 1203 1203 1202 1202 1202 1200 1201 1202 1203 1204 1203 1204 1203 1202 1202 1203 1202 1202 1202 1205 1205 1205 1204 1203 1203 1204 1205 1204 1203 1203 1203 1204 1204 1206 1206 1207 1207 1205 1204 1203 1205 1206 1207 1207 1206 1207 1207 1207 1207 1207 1209 1209 1210 1210 1209 1208 1206 1207 1207 1208 1209 1210 1212 1211 1211 1210 1210 1209 1210 1212 1213 1212 1212 1211 1210 1209 1210 1209 1211 1210 1210 1209 1209 1207 1204 1204 1208 1213 1216 1214 1211 1208 1207 1205 1203 1201 1197 1193 1189 1187 1186 1184 1180 1176 1172 1169 1167 1164 1160 1156 1151 1147 1143 1140 1137 1135 1129 1110 1076 1047 1031 1024 1021 1021 1024 1019 0 0 1733 1740 1747 1751 1744 1753 1738 1741 1758 1769 1758 1731 1720 1787 1784 1759 0
    0 1038 1043 1049 1050 0 0 0 0 0 1747 1724 0 0 1782 1763 1767 0 0 0 1745 1751 1728 1761 1761 1712 0 1759 1776 1723 1758 1746 0 1032 0 1732 1725 1728 1730 1738 1738 1715 1706 0 0 0 0 0 1023 1016 1019 1013 1008 1006 1006 1005 1005 1005 1007 1008 1009 1010 1009 1009 1009 1009 1009 1009 1010 1010 1009 1008 1008 1008 1008 1007 1007 1006 1008 1007 1010 1011 1012 1011 1010 1010 1011 1012 1011 1012 1011 1012 1010 1011 1010 1010 1009 1010 1009 1010 1009 1011 1010 1012 1012 1011 1009 1009 1009 1011 1020 1041 1071 1097 1114 1128 1137 1147 1157 1164 1169 1173 1177 1183 1188 1193 1196 1199 1200 1198 1196 1196 1198 1199 1200 1201 1201 1202 1203 1204 1204 1205 1207 1207 1206 1206 1205 1206 1206 1207 1207 1208 1208 1208 1208 1207 1206 1206 1206 1208 1208 1208 1207 1206 1205 1206 1206 1207 1206 1205 1204 1204 1205 1205 1205 1206 1206 1207 1205 1207 1206 1206 1202 1201 1202 1203 1205 1203 1203 1202 1202 1202 1202 1201 1201 1200 1200 1201 1202 1203 1202 1202 1202 1201 1200 1199 1199 1199 1199 1199 1199 1201 1201 1201 1200 1200 1200 1200 1200 1200 1199 1199 1200 1201 1200 1201 1202 1202 1201 1200 1199 1199 1199 1201 1201 1200 1200 1199 1199 1198 1198 1199 1200 1199 1199 1199 1199 1199 1199 1200 1200 1198 1197 1198 1200 1199 1199 1198 1199 1199 1197 1196 1196 1198 1198 1199 1198 1199 1199 1200 1199 1199 1198 1198 1199 1198 1198 1198 1199 1200 1201 1201 1198 1199 1200 1203 1202 1201 1200 1199 1200 1200 1200 1200 1200 1201 1199 1198 1198 1199 1200 1200 1199 1199 1200 1200 1200 1200 1200 1200 1200 1198 1198 1198 1200 1201 1201 1200 1200 1199 1199 1199 1199 1199 1199 1198 1199 1200 1199 1199 1198 1199 1200 1200 1200 1199 1200 1200 1201 1200 1199 1197 1198 1200 1199 1199 1198 1199 1199 1200 1200 1200 1200 1200 1200 1200 1201 1201 1201 1201 1202 1202 1200 1200 1200 1201 1201 1201 1202 1202 1201 1202 1202 1203 1202 1202 1202 1204 1204 1204 1202 1202 1203 1202 1203 1203 1205 1205 1204 1204 1204 1204 1205 1205 1205 1204 1203 1202 1204 1205 1206 1206 1206 1207 1205 1205 1205 1206 1206 1207 1207 1206 1206 1207 1208 1208 1207 1208 1207 1209 1210 1210 1208 1207 1208 1208 1208 1209 1209 1211 1209 1209 1208 1209 1208 1210 1211 1212 1212 1213 1213 1211 1209 1209 1210 1211 1211 1210 1210 1209 1208 1205 1205 1208 1213 1215 1213 1211 1209 1206 1204 1202 1200 1197 1193 1190 1186 1185 1183 1180 1176 1172 1170 1167 1165 1161 1157 1151 1147 1143 1141 1139 1136 1131 1110 1076 1045 1031 1024 1023 1022 1024 1015 0 0 1727 1728 1733 1748 1759 1739 1751 1764 1788 1783 1757 1734 1762 1771 1763 1760 0
    0 1037 1044 1053 0 0 0 0 0 1751 0 1712 1683 1781 0 1760 1746 0 1755 1740 1769 1756 1760 1732 1708 0 1713 1738 0 0 1759 1745 0 1027 0 1714 1725 1736 1728 1743 1736 1731 1720 0 0 0 0 1021 1017 1021 1022 1013 1009 1006 1007 1005 1005 1005 1007 1007 1008 1008 1008 1008 1008 1008 1009 1010 1010 1009 1008 1009 1008 1008 1008 1008 1008 1007 1007 1007 1009 1009 1010 1010 1010 1009 1010 1011 1011 1012 1012 1013 1011 1011 1010 1009 1009 1010 1007 1008 1008 1011 1009 1011 1010 1010 1009 1010 1012 1014 1023 1043 1074 1101 1116 1128 1137 1146 1156 1164 1169 1174 1178 1184 1190 1196 1199 1199 1199 1197 1196 1195 1197 1200 1201 1201 1201 1201 1202 1201 1203 1205 1207 1207 1207 1206 1206 1206 1207 1208 1207 1208 1208 1210 1210 1209 1207 1207 1208 1209 1207 1207 1206 1207 1206 1206 1206 1207 1206 1206 1205 1205 1204 1205 1204 1205 1204 1206 1205 1207 1206 1205 1202 1201 1202 1204 1204 1201 1201 1201 1202 1202 1202 1201 1202 1202 1202 1202 1203 1202 1202 1202 1202 1201 1201 1201 1200 1199 1199 1200 1201 1201 1201 1201 1201 1201 1201 1202 1201 1201 1200 1200 1200 1201 1200 1200 1201 1201 1201 1200 1200 1200 1200 1201 1201 1200 1199 1200 1200 1199 1199 1200 1200 1200 1200 1200 1199 1198 1198 1199 1200 1198 1196 1197 1199 1199 1199 1198 1198 1198 1199 1198 1197 1196 1198 1199 1199 1199 1199 1199 1198 1198 1198 1198 1199 1198 1197 1197 1199 1200 1200 1200 1198 1201 1200 1203 1202 1201 1200 1200 1200 1200 1200 1199 1199 1198 1198 1197 1199 1200 1202 1201 1200 1198 1199 1200 1201 1201 1200 1200 1200 1200 1200 1200 1200 1201 1201 1200 1199 1200 1199 1199 1199 1199 1199 1199 1200 1201 1200 1199 1197 1198 1200 1200 1199 1199 1201 1200 1201 1199 1199 1197 1198 1199 1199 1200 1199 1199 1199 1199 1199 1198 1199 1200 1201 1201 1202 1202 1201 1201 1201 1202 1201 1200 1199 1200 1200 1201 1202 1202 1201 1201 1202 1203 1203 1202 1202 1204 1204 1204 1201 1202 1203 1202 1202 1203 1203 1202 1200 1202 1205 1206 1207 1205 1205 1204 1204 1203 1205 1206 1207 1207 1206 1207 1206 1205 1204 1204 1204 1205 1206 1206 1206 1207 1209 1208 1207 1206 1207 1208 1210 1211 1210 1209 1210 1210 1210 1210 1210 1211 1208 1209 1207 1207 1208 1211 1211 1211 1210 1211 1210 1210 1210 1210 1211 1211 1211 1209 1209 1208 1208 1206 1205 1209 1212 1215 1214 1212 1209 1206 1203 1201 1199 1197 1194 1191 1187 1185 1183 1180 1177 1172 1170 1166 1164 1161 1158 1153 1149 1144 1142 1139 1136 1132 1113 1078 1045 1031 1025 1024 1022 1024 1018 0 0 1726 1701 1717 0 1751 1747 1740 1764 1792 1760 1751 1747 1742 1758 1746 1749 0
    0 1040 1047 1057 0 0 0 0 0 0 1709 1721 0 0 1731 0 0 1709 1713 1740 1737 1767 1770 1723 0 0 1726 1739 0 0 0 1688 0 0 0 0 1724 1742 1766 1743 1734 1724 1732 0 0 0 0 1004 1029 1024 1023 1012 1009 1006 1007 1006 1006 1006 1007 1007 1008 1009 1008 1008 1008 1009 1009 1009 1008 1008 1007 1008 1008 1007 1006 1007 1008 1008 1008 1006 1007 1008 1010 1010 1009 1009 1009 1009 1010 1012 1011 1011 1010 1011 1010 1009 1008 1010 1009 1008 1007 1010 1009 1009 1008 1010 1010 1010 1011 1012 1022 1042 1075 1102 1116 1127 1138 1147 1155 1161 1167 1173 1179 1185 1191 1196 1198 1198 1198 1196 1195 1194 1197 1200 1203 1203 1202 1201 1202 1203 1205 1206 1206 1206 1206 1206 1206 1206 1208 1209 1208 1208 1208 1209 1209 1210 1208 1208 1208 1208 1206 1206 1207 1206 1206 1205 1207 1207 1206 1204 1204 1204 1204 1205 1204 1205 1204 1205 1205 1206 1204 1204 1202 1202 1203 1205 1205 1203 1203 1203 1204 1203 1201 1200 1201 1202 1202 1200 1201 1199 1201 1201 1201 1199 1199 1200 1200 1198 1198 1199 1200 1200 1200 1200 1200 1201 1201 1202 1201 1201 1200 1201 1201 1201 1200 1200 1201 1201 1201 1200 1200 1200 1200 1200 1201 1201 1201 1201 1200 1200 1201 1202 1202 1200 1199 1199 1200 1199 1199 1199 1200 1199 1198 1198 1199 1199 1199 1198 1198 1199 1200 1199 1199 1198 1198 1198 1199 1199 1198 1198 1198 1199 1200 1200 1199 1199 1198 1197 1197 1197 1197 1198 1198 1201 1200 1202 1200 1200 1200 1199 1199 1199 1200 1199 1198 1198 1197 1197 1197 1200 1201 1201 1198 1198 1199 1200 1200 1200 1199 1199 1199 1200 1200 1201 1201 1201 1200 1200 1199 1200 1199 1199 1199 1200 1200 1200 1200 1201 1200 1198 1196 1198 1200 1201 1200 1200 1201 1199 1199 1199 1199 1199 1198 1200 1199 1200 1199 1200 1200 1199 1199 1198 1199 1199 1200 1201 1202 1203 1202 1202 1201 1202 1201 1200 1200 1199 1200 1201 1201 1200 1200 1200 1202 1203 1204 1203 1202 1203 1203 1204 1202 1202 1203 1202 1202 1203 1203 1202 1200 1203 1205 1205 1205 1204 1205 1204 1205 1204 1205 1206 1205 1206 1206 1207 1206 1205 1204 1205 1205 1206 1206 1206 1206 1207 1208 1208 1207 1206 1207 1209 1209 1210 1210 1211 1212 1211 1211 1210 1208 1208 1207 1207 1207 1207 1210 1212 1212 1212 1211 1212 1211 1211 1211 1211 1211 1210 1211 1209 1210 1210 1210 1208 1206 1208 1211 1214 1213 1212 1211 1207 1204 1201 1199 1197 1194 1191 1187 1184 1182 1179 1177 1172 1169 1165 1163 1161 1159 1155 1150 1145 1142 1139 1136 1133 1114 1078 1044 1030 1026 1024 1022 1024 1029 0 0 0 1704 1712 1733 1736 1749 1753 1746 1751 1776 1761 1727 1745 1720 1747 1724 0
    0 1044 1046 1053 0 0 0 0 0 0 1728 1732 1744 1737 0 1720 0 1706 1698 1717 1749 1768 1759 1753 0 0 0 1764 0 0 1753 1659 0 1037 0 1699 1714 1743 1750 1740 1716 1710 1709 1721 0 0 0 0 1038 1026 1019 1009 1006 1005 1006 1006 1007 1007 1007 1007 1007 1007 1007 1008 1008 1009 1009 1009 1008 1008 1008 1008 1008 1008 1007 1007 1007 1008 1009 1008 1007 1007 1009 1010 1009 1009 1008 1008 1008 1010 1011 1010 1009 1010 1010 1009 1009 1010 1009 1008 1008 1009 1008 1008 1008 1010 1011 1010 1010 1011 1021 1043 1077 1104 1118 1128 1138 1148 1156 1162 1167 1174 1179 1184 1189 1194 1197 1197 1197 1196 1195 1193 1195 1198 1202 1202 1202 1201 1202 1203 1206 1207 1207 1205 1205 1206 1207 1207 1208 1209 1210 1210 1209 1209 1208 1209 1209 1210 1208 1206 1205 1205 1207 1207 1206 1205 1206 1206 1205 1205 1205 1205 1203 1204 1204 1205 1204 1204 1204 1205 1204 1204 1203 1203 1202 1203 1203 1203 1202 1202 1202 1201 1202 1201 1202 1202 1202 1201 1201 1200 1201 1201 1201 1200 1200 1201 1201 1200 1199 1200 1201 1202 1201 1201 1201 1200 1201 1201 1200 1200 1200 1201 1200 1199 1199 1199 1200 1201 1201 1200 1200 1201 1200 1199 1200 1200 1201 1200 1199 1200 1200 1201 1201 1200 1199 1199 1199 1199 1198 1199 1200 1200 1199 1198 1198 1199 1199 1198 1198 1199 1200 1199 1199 1199 1199 1199 1199 1199 1198 1198 1198 1199 1200 1199 1198 1197 1197 1196 1198 1198 1197 1198 1198 1201 1200 1200 1199 1199 1198 1196 1197 1199 1200 1199 1198 1197 1197 1198 1197 1200 1199 1200 1199 1199 1199 1200 1200 1200 1199 1199 1199 1200 1199 1200 1200 1200 1199 1199 1199 1200 1199 1199 1198 1200 1201 1201 1200 1200 1199 1198 1198 1200 1201 1201 1201 1201 1201 1199 1198 1198 1200 1201 1200 1199 1200 1201 1200 1200 1200 1200 1199 1199 1200 1200 1200 1200 1201 1201 1201 1201 1202 1202 1202 1201 1200 1199 1200 1201 1202 1202 1201 1201 1201 1202 1204 1204 1203 1202 1201 1202 1202 1203 1204 1203 1201 1201 1201 1201 1200 1201 1202 1204 1205 1204 1203 1202 1203 1203 1205 1205 1205 1205 1206 1208 1206 1205 1204 1205 1205 1205 1206 1206 1206 1206 1206 1206 1207 1208 1209 1209 1209 1210 1211 1211 1212 1211 1212 1211 1209 1207 1207 1207 1208 1207 1210 1212 1213 1212 1211 1211 1211 1210 1211 1210 1211 1210 1211 1209 1210 1209 1209 1207 1206 1208 1212 1214 1213 1211 1210 1209 1205 1202 1200 1198 1194 1192 1188 1185 1182 1180 1176 1171 1168 1164 1162 1160 1158 1154 1150 1146 1142 1138 1135 1132 1114 1078 1044 1029 1025 1024 1022 1023 1035 0 0 0 0 0 1749 1724 1728 1752 1738 1747 1764 1748 1767 1715 1773 1754 1726 0
    0 1049 1048 1046 0 0 0 0 1750 1724 0 0 1752 1741 1742 1743 1754 0 1717 0 1735 0 1767 1756 1737 0 1792 0 0 0 1716 1729 0 0 0 0 1724 1726 1730 1729 1717 1694 1718 0 0 0 0 996 1035 1023 1014 1006 1004 1004 1005 1006 1007 1007 1007 1007 1008 1008 1009 1009 1009 1010 1010 1009 1008 1008 1008 1008 1009 1008 1008 1007 1008 1008 1009 1009 1008 1008 1009 1009 1009 1009 1008 1007 1008 1010 1010 1009 1009 1010 1011 1009 1009 1010 1010 1009 1009 1009 1009 1010 1010 1012 1012 1011 1010 1010 1021 1043 1076 1105 1119 1129 1138 1147 1156 1162 1167 1172 1178 1183 1188 1193 1197 1198 1198 1197 1196 1194 1196 1198 1201 1201 1202 1201 1203 1205 1207 1206 1205 1204 1204 1206 1206 1206 1207 1208 1209 1210 1210 1209 1207 1209 1209 1210 1207 1206 1205 1206 1207 1206 1205 1205 1206 1205 1204 1205 1205 1206 1204 1204 1204 1203 1203 1202 1203 1204 1203 1203 1203 1202 1201 1202 1203 1204 1203 1203 1202 1202 1202 1202 1202 1202 1201 1201 1200 1200 1201 1201 1200 1199 1199 1200 1200 1200 1199 1200 1200 1201 1201 1199 1199 1199 1199 1198 1198 1199 1199 1200 1200 1199 1199 1199 1200 1201 1201 1200 1199 1200 1200 1198 1199 1199 1200 1198 1198 1199 1200 1200 1200 1200 1199 1198 1197 1199 1199 1200 1200 1200 1199 1199 1198 1198 1197 1198 1199 1200 1200 1199 1199 1201 1201 1200 1198 1198 1198 1199 1200 1200 1199 1199 1199 1198 1197 1196 1196 1196 1196 1198 1198 1200 1200 1200 1198 1198 1196 1196 1196 1199 1201 1200 1198 1197 1198 1199 1198 1201 1200 1201 1198 1199 1199 1200 1200 1200 1198 1198 1197 1198 1197 1199 1199 1199 1197 1197 1198 1199 1199 1198 1198 1199 1201 1202 1200 1200 1198 1197 1198 1200 1202 1202 1201 1202 1200 1199 1198 1199 1201 1201 1200 1201 1201 1201 1199 1199 1199 1201 1201 1201 1200 1199 1199 1200 1200 1201 1201 1201 1202 1201 1200 1200 1200 1199 1200 1200 1201 1202 1201 1201 1199 1200 1202 1204 1203 1201 1199 1202 1202 1204 1204 1205 1203 1202 1203 1204 1204 1202 1202 1202 1203 1203 1203 1203 1203 1204 1205 1205 1204 1204 1206 1206 1205 1205 1206 1206 1207 1206 1207 1206 1207 1206 1206 1206 1207 1208 1208 1209 1209 1208 1209 1210 1211 1212 1211 1211 1208 1207 1208 1209 1210 1209 1211 1212 1213 1211 1211 1212 1212 1210 1210 1210 1210 1210 1210 1210 1210 1209 1209 1208 1207 1208 1213 1216 1213 1211 1210 1209 1206 1203 1201 1197 1193 1190 1186 1184 1182 1180 1176 1173 1169 1166 1163 1160 1158 1154 1149 1146 1142 1140 1136 1133 1114 1079 1045 1029 1025 1024 1024 1025 1033 0 0 0 0 1749 1740 1728 1736 1750 1747 1734 1738 1761 1748 1760 1732 1743 1740 0
    0 1051 1050 1052 1031 0 0 0 0 0 1672 0 1744 1753 1771 1788 0 0 0 1733 0 0 0 1767 1732 0 0 0 0 0 1706 1712 0 0 0 1711 1718 1719 1713 1727 1723 1735 1714 1728 0 0 0 1025 1030 1023 1020 1007 1005 1003 1004 1006 1007 1008 1008 1007 1007 1008 1008 1010 1010 1011 1010 1009 1008 1008 1008 1008 1009 1009 1009 1009 1009 1010 1009 1010 1010 1009 1008 1009 1010 1010 1009 1009 1010 1010 1010 1010 1010 1010 1010 1010 1010 1011 1010 1009 1008 1009 1010 1011 1011 1012 1012 1013 1012 1014 1022 1044 1076 1105 1120 1130 1139 1148 1157 1164 1168 1172 1177 1182 1187 1192 1196 1199 1199 1198 1197 1195 1197 1197 1199 1199 1201 1201 1203 1205 1207 1207 1206 1206 1206 1207 1207 1208 1209 1209 1210 1210 1210 1208 1206 1206 1207 1208 1207 1207 1206 1206 1205 1206 1205 1205 1204 1203 1202 1203 1203 1204 1203 1203 1203 1202 1201 1200 1201 1202 1203 1203 1203 1202 1201 1201 1201 1202 1201 1202 1202 1203 1203 1203 1202 1203 1202 1202 1201 1202 1201 1200 1200 1199 1199 1199 1200 1201 1201 1201 1200 1201 1202 1200 1200 1199 1200 1198 1199 1198 1200 1200 1200 1199 1199 1198 1198 1199 1199 1200 1200 1201 1199 1198 1198 1198 1198 1197 1199 1199 1199 1199 1199 1200 1200 1199 1198 1198 1199 1200 1199 1199 1198 1198 1198 1198 1199 1199 1200 1200 1199 1198 1199 1202 1202 1199 1197 1197 1198 1199 1201 1200 1200 1199 1200 1199 1199 1198 1198 1198 1197 1199 1200 1201 1200 1199 1198 1198 1197 1196 1197 1199 1201 1200 1199 1198 1198 1198 1198 1200 1199 1199 1198 1199 1199 1200 1200 1200 1199 1199 1199 1199 1199 1200 1200 1199 1198 1199 1199 1200 1200 1199 1197 1198 1201 1202 1201 1199 1198 1197 1200 1201 1202 1201 1199 1200 1199 1200 1200 1200 1200 1200 1200 1200 1201 1200 1200 1199 1199 1200 1200 1200 1201 1201 1201 1200 1201 1201 1201 1200 1202 1202 1201 1200 1200 1200 1200 1200 1201 1203 1203 1202 1201 1201 1202 1203 1203 1201 1199 1201 1202 1203 1203 1204 1203 1202 1202 1203 1203 1202 1203 1204 1205 1205 1205 1204 1204 1203 1205 1205 1204 1203 1205 1204 1204 1203 1204 1205 1205 1205 1207 1206 1207 1206 1205 1205 1206 1207 1208 1208 1209 1208 1209 1209 1211 1211 1210 1210 1209 1210 1210 1210 1210 1209 1210 1211 1211 1210 1211 1212 1213 1211 1210 1210 1211 1211 1211 1210 1210 1208 1208 1207 1207 1209 1212 1215 1213 1212 1211 1210 1207 1204 1200 1196 1192 1189 1186 1184 1183 1179 1176 1172 1170 1167 1163 1160 1157 1154 1150 1147 1143 1141 1137 1134 1115 1081 1047 1030 1025 1023 1023 1025 1034 0 0 0 0 1744 1736 1732 1722 1736 1760 1726 1756 1751 1766 1745 1745 1758 1770 0
    0 1050 1050 1053 1040 0 0 0 1793 0 1769 1735 1720 1728 0 0 1768 1702 1714 1728 1723 0 0 1725 0 0 0 0 0 1741 1727 1697 0 0 0 0 1723 1725 1726 1723 1734 1723 1718 1718 0 0 0 0 1035 1024 1026 1010 1006 1003 1005 1006 1008 1008 1008 1007 1007 1008 1008 1010 1010 1011 1010 1010 1008 1007 1007 1008 1009 1009 1009 1009 1010 1010 1010 1011 1011 1010 1008 1008 1010 1010 1009 1008 1010 1010 1010 1010 1010 1010 1009 1009 1010 1011 1010 1009 1009 1010 1010 1011 1010 1011 1011 1014 1014 1016 1023 1044 1076 1104 1118 1129 1138 1147 1155 1163 1168 1173 1178 1183 1188 1192 1197 1199 1201 1199 1197 1195 1197 1199 1200 1200 1201 1203 1204 1207 1207 1207 1205 1206 1207 1206 1206 1207 1208 1209 1208 1207 1208 1207 1207 1206 1205 1205 1207 1208 1207 1206 1204 1205 1205 1205 1204 1203 1203 1203 1203 1203 1204 1204 1204 1202 1202 1201 1202 1202 1203 1203 1203 1202 1201 1202 1203 1205 1204 1203 1203 1204 1203 1202 1201 1203 1202 1201 1199 1201 1201 1200 1199 1199 1199 1199 1200 1201 1201 1200 1199 1200 1200 1199 1199 1199 1201 1199 1200 1199 1201 1201 1201 1201 1200 1199 1198 1198 1198 1199 1200 1201 1199 1199 1199 1199 1199 1199 1200 1199 1199 1199 1200 1200 1199 1199 1199 1199 1199 1200 1199 1199 1198 1198 1198 1198 1199 1200 1200 1200 1199 1199 1200 1201 1201 1198 1198 1197 1198 1198 1199 1200 1199 1199 1200 1201 1200 1199 1198 1198 1197 1200 1200 1201 1200 1200 1199 1199 1199 1198 1199 1199 1200 1200 1200 1199 1198 1197 1198 1199 1200 1199 1198 1197 1198 1198 1199 1199 1200 1199 1199 1199 1198 1199 1199 1199 1197 1199 1199 1201 1199 1199 1198 1199 1199 1201 1200 1199 1198 1198 1199 1200 1200 1199 1198 1199 1198 1200 1200 1201 1200 1200 1199 1200 1201 1200 1199 1198 1199 1200 1200 1200 1200 1199 1199 1199 1200 1200 1200 1200 1201 1201 1200 1200 1200 1201 1201 1202 1202 1202 1202 1202 1202 1201 1201 1202 1202 1201 1200 1201 1201 1201 1201 1203 1204 1204 1204 1203 1204 1202 1203 1203 1204 1204 1205 1204 1204 1204 1204 1203 1203 1203 1203 1202 1203 1203 1204 1204 1205 1206 1207 1207 1207 1206 1205 1206 1206 1207 1207 1208 1209 1208 1209 1210 1210 1211 1209 1210 1209 1210 1210 1209 1209 1209 1210 1210 1211 1210 1211 1213 1214 1212 1211 1211 1211 1212 1211 1212 1210 1209 1208 1207 1207 1209 1213 1216 1215 1213 1212 1209 1207 1203 1199 1195 1192 1189 1186 1184 1182 1179 1175 1172 1170 1168 1164 1161 1158 1155 1151 1148 1145 1142 1137 1134 1115 1081 1047 1032 1026 1024 1022 1025 1031 0 0 0 0 1744 1740 1731 1737 1736 1746 1780 1723 1760 1755 1761 1753 1756 1763 0
    0 1049 1050 1048 1070 0 0 0 0 1778 0 1730 1709 0 0 0 1732 1740 1719 1694 1748 1713 1721 1724 0 0 0 0 0 1782 1758 1729 1675 0 0 0 1736 1737 1735 1732 1721 1720 1728 0 0 0 0 0 1029 1020 1028 1013 1008 1005 1006 1006 1007 1007 1007 1006 1006 1006 1006 1008 1009 1010 1010 1010 1008 1007 1007 1008 1009 1009 1009 1010 1009 1009 1009 1011 1010 1009 1007 1008 1010 1011 1010 1009 1010 1011 1011 1011 1009 1008 1008 1010 1011 1011 1010 1011 1010 1011 1010 1010 1009 1010 1010 1012 1012 1015 1023 1045 1077 1105 1119 1130 1138 1149 1156 1164 1168 1175 1179 1184 1188 1192 1197 1199 1201 1198 1197 1195 1196 1198 1200 1201 1203 1204 1205 1206 1206 1206 1206 1206 1208 1207 1208 1207 1208 1208 1207 1206 1208 1207 1207 1205 1206 1206 1209 1209 1208 1206 1204 1206 1206 1206 1204 1204 1204 1204 1204 1204 1204 1205 1205 1204 1203 1202 1202 1202 1204 1204 1203 1202 1201 1201 1202 1204 1204 1202 1202 1203 1203 1202 1202 1203 1201 1200 1200 1202 1202 1200 1200 1200 1199 1199 1199 1200 1201 1201 1200 1200 1199 1199 1199 1200 1201 1201 1200 1200 1201 1201 1200 1199 1199 1198 1199 1199 1199 1199 1200 1200 1199 1200 1201 1201 1200 1200 1200 1198 1198 1199 1199 1199 1199 1199 1199 1198 1198 1199 1199 1199 1197 1198 1198 1198 1199 1200 1200 1199 1199 1199 1200 1200 1200 1198 1198 1197 1198 1197 1198 1198 1199 1200 1201 1200 1201 1200 1201 1200 1201 1201 1202 1201 1200 1199 1200 1199 1199 1197 1198 1197 1199 1199 1199 1198 1197 1196 1197 1197 1199 1198 1198 1197 1197 1198 1199 1201 1201 1202 1201 1199 1198 1198 1200 1200 1199 1200 1200 1200 1199 1200 1198 1198 1198 1198 1198 1198 1198 1199 1200 1200 1200 1199 1199 1199 1199 1199 1200 1201 1200 1200 1199 1199 1199 1199 1200 1199 1199 1199 1199 1199 1199 1199 1199 1199 1200 1200 1201 1201 1202 1200 1202 1201 1202 1202 1203 1202 1202 1201 1201 1201 1204 1202 1201 1200 1202 1202 1202 1201 1201 1201 1201 1201 1203 1204 1204 1203 1204 1203 1203 1202 1204 1204 1205 1203 1204 1203 1204 1205 1205 1204 1204 1204 1205 1205 1204 1204 1204 1205 1206 1207 1207 1206 1206 1207 1207 1208 1209 1209 1210 1209 1208 1209 1209 1211 1210 1210 1210 1210 1210 1210 1209 1209 1209 1210 1210 1210 1212 1214 1214 1213 1211 1210 1211 1212 1214 1213 1212 1208 1207 1207 1207 1210 1213 1215 1214 1212 1212 1210 1208 1203 1199 1196 1193 1191 1189 1185 1182 1178 1174 1171 1170 1168 1164 1161 1158 1155 1151 1150 1146 1143 1138 1134 1116 1082 1048 1032 1024 1022 1020 1023 1025 0 0 1764 1761 1746 1759 1751 1754 1736 1742 1749 1742 1736 1758 1755 1750 1735 1709 0
    0 1048 1048 1049 0 0 0 0 1770 1737 1764 0 1728 1737 0 0 1708 1728 1718 1709 1752 1709 1727 1726 0 0 0 0 0 0 0 0 0 0 0 0 1717 1724 1730 1731 1702 0 0 0 0 0 0 0 1030 1015 1022 1015 1009 1007 1007 1007 1006 1006 1007 1007 1006 1005 1007 1008 1008 1008 1009 1009 1008 1006 1007 1008 1009 1009 1008 1008 1008 1009 1009 1010 1009 1009 1007 1007 1008 1010 1010 1008 1009 1010 1011 1010 1009 1008 1009 1010 1011 1010 1009 1011 1011 1012 1010 1010 1009 1010 1010 1011 1011 1013 1022 1045 1079 1106 1120 1131 1139 1148 1156 1163 1168 1174 1179 1184 1189 1193 1197 1201 1202 1199 1196 1195 1196 1198 1200 1202 1204 1205 1204 1205 1204 1204 1204 1206 1207 1208 1208 1207 1207 1207 1207 1205 1207 1206 1206 1204 1206 1207 1209 1208 1207 1207 1206 1206 1205 1206 1205 1205 1206 1207 1208 1206 1206 1205 1205 1205 1204 1203 1204 1204 1205 1204 1203 1202 1202 1201 1202 1203 1203 1202 1202 1202 1202 1201 1200 1200 1199 1199 1199 1201 1201 1200 1200 1200 1200 1198 1199 1198 1199 1200 1200 1199 1199 1200 1199 1199 1199 1199 1200 1200 1201 1200 1200 1199 1199 1199 1199 1199 1199 1199 1199 1199 1199 1200 1201 1201 1200 1200 1199 1199 1199 1200 1200 1200 1200 1199 1198 1198 1198 1200 1198 1198 1197 1197 1197 1198 1199 1200 1200 1200 1200 1199 1199 1200 1201 1200 1200 1198 1197 1196 1197 1197 1198 1199 1200 1200 1200 1199 1200 1200 1200 1200 1200 1200 1200 1200 1201 1200 1199 1198 1197 1197 1198 1199 1199 1198 1198 1197 1197 1197 1199 1199 1199 1198 1196 1198 1199 1201 1201 1201 1199 1198 1196 1197 1199 1200 1198 1198 1198 1199 1198 1200 1198 1198 1197 1197 1197 1197 1199 1201 1201 1199 1199 1198 1199 1200 1199 1199 1199 1200 1200 1200 1199 1199 1199 1199 1199 1199 1199 1200 1199 1199 1198 1198 1198 1199 1199 1201 1202 1202 1201 1199 1200 1200 1201 1201 1201 1202 1201 1200 1200 1200 1203 1202 1202 1201 1202 1202 1202 1201 1201 1202 1202 1202 1203 1203 1204 1204 1204 1203 1202 1201 1202 1203 1203 1202 1203 1203 1205 1206 1205 1204 1204 1205 1205 1205 1204 1204 1205 1205 1205 1206 1206 1207 1207 1208 1207 1207 1209 1210 1210 1209 1208 1210 1211 1211 1210 1210 1210 1209 1208 1210 1210 1210 1210 1210 1210 1211 1213 1214 1213 1211 1210 1209 1210 1211 1213 1213 1211 1207 1206 1206 1206 1209 1213 1216 1214 1212 1212 1210 1207 1203 1200 1197 1194 1192 1189 1185 1182 1178 1175 1172 1170 1168 1164 1162 1158 1155 1152 1150 1146 1142 1138 1135 1117 1083 1049 1032 1025 1023 1021 1024 1024 0 0 1769 1765 1766 1752 1761 1748 1743 1739 1744 1739 1760 1739 1759 1747 1731 1689 0</data></EmptySandboxInsideBox>
</opencv_storage>
