<?xml version="1.0"?>
<opencv_storage>
<EmptySandboxInsideBox type_id="opencv-matrix">
  <rows>38</rows>
  <cols>512</cols>
  <dt>w</dt>
  <data>
    0 0 0 0 0 0 0 0 0 0 0 1709 1703 0 1660 0 1670 1735 1768 0 1706 1717 1715 1741 0 0 0 1731 0 0 1066 0 1702 1723 1714 1724 1718 1715 1719 1731 1728 1713 0 0 1036 1018 1017 1011 1005 1002 1001 1001 1000 999 999 999 1000 1000 999 999 1000 1001 1003 1003 1003 1003 1004 1003 1003 1002 1002 1003 1003 1005 1003 1003 1001 1002 1002 1003 1004 1004 1006 1005 1005 1005 1006 1004 1004 1003 1003 1003 1002 1002 1002 1005 1005 1005 1005 1006 1006 1007 1007 1007 1006 1006 1007 1014 1031 1055 1081 1100 1118 1128 1137 1146 1154 1159 1165 1170 1176 1180 1183 1189 1193 1197 1194 1190 1188 1189 1193 1193 1193 1193 1196 1197 1198 1198 1201 1201 1200 1200 1200 1200 1199 1200 1201 1201 1202 1201 1200 1198 1198 1199 1200 1199 1200 1199 1200 1201 1201 1200 1200 1199 1200 1199 1198 1198 1199 1199 1197 1196 1196 1198 1197 1198 1198 1198 1198 1196 1197 1196 1196 1195 1195 1196 1196 1198 1199 1199 1199 1198 1197 1197 1196 1196 1194 1193 1194 1195 1195 1195 1195 1194 1194 1195 1196 1197 1195 1196 1196 1197 1197 1197 1196 1195 1196 1196 1196 1196 1196 1195 1194 1194 1195 1195 1194 1193 1194 1194 1196 1195 1195 1194 1194 1195 1196 1197 1197 1196 1195 1194 1195 1196 1196 1196 1196 1196 1197 1196 1197 1196 1196 1195 1195 1196 1196 1195 1195 1195 1195 1196 1196 1196 1196 1195 1196 1195 1197 1196 1198 1198 1197 1195 1194 1194 1196 1196 1196 1196 1197 1197 1195 1195 1194 1196 1196 1197 1197 1197 1197 1197 1196 1195 1196 1197 1197 1197 1197 1197 1195 1195 1195 1197 1198 1199 1198 1198 1198 1198 1197 1197 1197 1198 1198 1198 1197 1197 1196 1196 1196 1196 1197 1197 1198 1198 1198 1197 1197 1197 1197 1197 1197 1197 1199 1199 1198 1198 1197 1198 1196 1197 1198 1199 1199 1199 1200 1199 1201 1200 1199 1198 1197 1200 1201 1200 1200 1198 1198 1198 1200 1200 1201 1200 1202 1201 1201 1202 1202 1202 1200 1199 1200 1201 1201 1200 1200 1200 1201 1201 1201 1200 1200 1198 1198 1200 1201 1202 1202 1202 1202 1203 1203 1203 1203 1203 1205 1205 1204 1202 1202 1203 1204 1204 1204 1203 1204 1205 1207 1207 1207 1206 1207 1207 1208 1208 1209 1209 1209 1209 1209 1208 1209 1208 1208 1207 1208 1208 1209 1210 1210 1210 1210 1212 1211 1210 1209 1208 1209 1209 1209 1210 1209 1209 1208 1209 1208 1208 1205 1204 1204 1208 1212 1213 1213 1212 1210 1208 1206 1203 1198 1194 1191 1190 1187 1183 1182 1179 1176 1170 1168 1165 1162 1158 1153 1149 1144 1141 1138 1137 1134 1121 1096 1061 1035 1025 1022 1022 1021 1024 0 0 0 1735 1739 1745 1756 1754 1749 1739 1749 1752 1753 1742 1764 1773 1743 1732 1713 1722 1808 0
    0 0 0 0 0 0 0 0 0 0 1710 1721 1712 0 0 0 1717 1706 1765 1695 1708 1717 0 0 0 0 0 0 0 1071 1067 0 1720 1709 1742 1732 1717 1710 1714 1727 1717 1714 0 0 0 1017 1015 1013 1005 1001 1001 1000 1000 999 1000 1000 1001 1001 1001 1000 1001 1002 1002 1002 1002 1003 1004 1003 1001 999 1000 1001 1002 1002 1001 1002 1001 1002 1003 1004 1004 1005 1007 1006 1005 1005 1005 1005 1004 1003 1003 1003 1002 1002 1003 1004 1004 1004 1004 1006 1006 1007 1007 1007 1006 1007 1007 1014 1031 1056 1083 1102 1119 1130 1138 1147 1154 1159 1165 1169 1176 1181 1184 1189 1192 1195 1192 1188 1187 1189 1194 1194 1194 1195 1197 1198 1197 1197 1200 1200 1200 1198 1199 1200 1200 1200 1202 1202 1202 1201 1199 1198 1198 1199 1201 1200 1201 1200 1200 1200 1199 1200 1200 1201 1201 1200 1198 1199 1199 1198 1197 1199 1199 1199 1198 1199 1198 1199 1198 1197 1197 1196 1197 1196 1196 1197 1197 1198 1199 1200 1200 1199 1197 1196 1195 1196 1194 1194 1193 1194 1194 1194 1194 1194 1195 1196 1197 1196 1195 1195 1195 1195 1196 1196 1195 1195 1195 1195 1195 1194 1195 1195 1196 1196 1195 1193 1193 1193 1194 1194 1195 1196 1196 1196 1194 1195 1196 1196 1195 1195 1195 1195 1197 1197 1196 1195 1195 1196 1196 1196 1196 1195 1195 1195 1196 1196 1196 1195 1195 1195 1194 1195 1196 1196 1196 1196 1196 1196 1197 1196 1197 1197 1197 1196 1195 1195 1196 1196 1196 1196 1196 1197 1195 1195 1194 1196 1195 1197 1197 1197 1197 1196 1196 1196 1197 1198 1199 1198 1197 1196 1195 1196 1196 1197 1199 1198 1198 1197 1197 1197 1198 1197 1197 1197 1198 1199 1199 1198 1196 1195 1196 1196 1197 1198 1198 1198 1197 1198 1197 1198 1198 1199 1199 1199 1200 1200 1199 1199 1198 1198 1197 1198 1198 1199 1199 1199 1199 1198 1199 1200 1199 1198 1197 1200 1200 1200 1199 1198 1199 1199 1200 1200 1201 1200 1201 1201 1202 1201 1201 1202 1201 1201 1200 1200 1200 1200 1200 1200 1201 1203 1203 1202 1201 1199 1198 1201 1202 1202 1201 1202 1202 1204 1203 1203 1202 1202 1203 1203 1204 1202 1202 1202 1202 1204 1205 1205 1205 1206 1207 1207 1207 1206 1208 1207 1208 1207 1209 1209 1209 1209 1209 1208 1208 1208 1208 1208 1209 1208 1209 1209 1209 1210 1209 1210 1210 1210 1210 1209 1211 1210 1210 1209 1209 1209 1208 1208 1209 1207 1205 1202 1203 1207 1211 1212 1212 1211 1209 1207 1204 1202 1198 1195 1192 1190 1187 1184 1182 1178 1175 1170 1169 1166 1163 1159 1153 1149 1144 1141 1137 1136 1133 1123 1097 1062 1036 1027 1024 1021 1021 1024 0 0 1757 1747 1754 1742 1749 1761 1767 1750 1737 0 1761 1772 1773 1760 1742 1734 1731 1744 1740 0
    0 0 0 0 0 0 0 0 0 0 1727 1722 1741 1746 0 1731 0 1731 1713 0 1710 1739 1739 0 0 0 0 0 0 0 0 0 1731 1717 1710 1724 1704 1698 1702 1713 1737 1714 0 0 0 1017 1014 1013 1007 1001 1000 1000 1000 999 999 999 1000 1000 1001 1000 1000 1000 1000 1001 1001 1002 1002 1002 1001 1000 999 1000 1001 1001 1001 1002 1002 1003 1003 1003 1003 1004 1005 1005 1004 1004 1004 1004 1004 1004 1004 1004 1002 1003 1003 1004 1003 1003 1004 1005 1006 1006 1005 1006 1006 1008 1007 1014 1031 1060 1087 1104 1120 1130 1138 1146 1154 1159 1165 1170 1175 1180 1184 1188 1191 1194 1192 1188 1187 1189 1194 1194 1195 1196 1198 1198 1196 1196 1198 1199 1199 1198 1199 1201 1200 1201 1201 1202 1202 1201 1200 1200 1200 1199 1200 1199 1201 1200 1200 1199 1198 1200 1201 1202 1201 1200 1199 1199 1199 1199 1198 1199 1199 1199 1198 1198 1198 1199 1197 1197 1197 1198 1199 1199 1198 1198 1196 1197 1198 1198 1198 1198 1197 1196 1196 1198 1197 1196 1195 1195 1194 1195 1196 1196 1196 1197 1198 1197 1197 1197 1197 1197 1197 1196 1194 1194 1195 1195 1195 1194 1194 1196 1197 1196 1194 1193 1193 1194 1194 1195 1196 1197 1196 1195 1195 1196 1197 1196 1194 1193 1192 1193 1195 1196 1196 1194 1194 1195 1196 1195 1195 1194 1194 1195 1197 1197 1196 1196 1196 1196 1195 1196 1197 1197 1197 1195 1196 1195 1196 1196 1196 1195 1196 1196 1196 1195 1196 1196 1196 1196 1196 1197 1196 1196 1195 1195 1195 1196 1196 1196 1196 1195 1196 1195 1197 1198 1199 1198 1197 1196 1196 1196 1197 1197 1199 1198 1198 1196 1197 1197 1198 1198 1198 1197 1199 1200 1200 1197 1196 1195 1197 1196 1197 1198 1198 1198 1197 1199 1198 1198 1198 1198 1200 1199 1201 1200 1200 1197 1197 1197 1197 1198 1197 1198 1198 1199 1199 1198 1199 1199 1199 1197 1198 1199 1200 1199 1200 1200 1201 1200 1201 1202 1203 1201 1200 1200 1201 1200 1200 1202 1201 1202 1200 1200 1199 1200 1200 1201 1203 1203 1203 1201 1201 1200 1200 1202 1203 1204 1203 1202 1202 1203 1204 1204 1203 1202 1203 1203 1203 1203 1204 1204 1204 1204 1205 1204 1205 1205 1206 1205 1206 1206 1209 1208 1207 1206 1206 1208 1209 1208 1208 1208 1209 1209 1210 1209 1210 1209 1211 1210 1210 1209 1210 1211 1211 1211 1210 1210 1211 1210 1210 1210 1210 1209 1208 1209 1208 1207 1204 1202 1203 1207 1213 1214 1213 1211 1209 1206 1203 1200 1198 1196 1193 1190 1187 1184 1181 1177 1174 1170 1169 1166 1162 1158 1154 1150 1144 1140 1137 1135 1132 1123 1099 1064 1038 1028 1023 1020 1021 1024 0 0 0 1753 1742 1739 1749 1756 1760 1758 1738 1728 1757 1779 1779 1763 1752 1754 1742 1724 1732 0
    0 0 0 0 1769 0 0 0 0 0 1732 1703 0 0 1781 1756 1734 1738 1727 0 0 1760 0 1737 0 1720 0 1738 0 0 0 0 1735 1713 1709 1712 1713 1700 1697 1724 1737 0 0 0 1027 1008 1009 1008 1006 1002 1000 999 999 999 1000 1000 1002 1002 1003 1001 1001 1001 1001 1002 1001 1001 1000 1001 1002 1001 999 999 1001 1001 1002 1001 1002 1002 1004 1003 1003 1002 1004 1004 1004 1003 1004 1003 1003 1003 1003 1003 1002 1002 1003 1002 1002 1002 1004 1003 1005 1005 1004 1005 1006 1007 1006 1013 1033 1064 1094 1108 1122 1130 1138 1146 1154 1159 1165 1169 1175 1179 1184 1188 1189 1192 1191 1189 1188 1190 1194 1196 1197 1197 1198 1197 1196 1196 1198 1199 1199 1200 1200 1201 1201 1201 1202 1202 1202 1201 1201 1201 1201 1200 1200 1199 1200 1199 1199 1197 1198 1199 1201 1202 1202 1200 1200 1200 1200 1200 1199 1199 1198 1199 1198 1198 1198 1197 1197 1196 1197 1198 1201 1201 1200 1198 1197 1197 1197 1197 1198 1198 1197 1196 1197 1198 1198 1197 1196 1195 1195 1195 1195 1195 1195 1197 1198 1197 1197 1197 1197 1196 1195 1195 1195 1194 1194 1193 1193 1193 1193 1195 1195 1195 1195 1195 1195 1195 1195 1196 1196 1197 1196 1195 1196 1196 1196 1195 1194 1192 1191 1192 1195 1196 1195 1194 1194 1195 1194 1194 1192 1192 1193 1196 1197 1196 1194 1194 1195 1196 1196 1196 1197 1197 1197 1196 1196 1195 1195 1196 1195 1195 1195 1196 1196 1195 1195 1196 1197 1197 1196 1197 1196 1197 1196 1196 1196 1196 1196 1196 1196 1196 1196 1196 1197 1197 1198 1197 1196 1195 1195 1196 1197 1197 1198 1197 1197 1196 1196 1195 1197 1197 1197 1196 1196 1197 1198 1196 1195 1195 1196 1196 1196 1197 1197 1199 1197 1198 1197 1197 1197 1198 1200 1200 1201 1200 1200 1198 1198 1198 1198 1199 1198 1198 1197 1198 1198 1198 1199 1199 1199 1197 1198 1199 1200 1199 1199 1199 1201 1201 1201 1201 1201 1199 1198 1200 1201 1201 1200 1201 1201 1202 1200 1202 1201 1201 1200 1202 1202 1202 1201 1200 1200 1199 1200 1201 1203 1204 1203 1202 1202 1203 1203 1202 1200 1201 1202 1203 1203 1203 1203 1204 1203 1204 1205 1205 1205 1204 1204 1204 1206 1207 1209 1208 1207 1206 1205 1208 1208 1209 1208 1209 1209 1210 1212 1211 1210 1209 1210 1210 1210 1210 1210 1211 1210 1210 1209 1211 1212 1211 1210 1209 1209 1208 1208 1208 1209 1207 1205 1203 1204 1207 1213 1215 1212 1210 1208 1206 1204 1200 1198 1196 1193 1189 1186 1183 1181 1177 1174 1171 1169 1166 1161 1158 1155 1151 1146 1142 1139 1135 1131 1123 1099 1065 1039 1027 1022 1019 1021 1021 0 0 0 1742 1738 1729 1750 1750 1749 1733 1727 1734 1743 1775 1785 1771 1764 1769 1791 0 1717 0
    0 0 0 0 0 0 0 0 0 1715 0 0 0 1718 1737 1769 0 0 0 0 0 0 0 1776 0 0 0 0 0 0 0 0 1689 1708 1717 1716 1713 1707 1711 1714 1730 0 0 0 0 1016 1010 1010 1005 1001 1001 999 1000 1000 1001 1000 1001 1001 1002 1001 1001 1001 1002 1002 1001 1000 999 1000 1001 1001 1001 1000 1001 1002 1002 1001 1001 1001 1003 1002 1002 1001 1002 1003 1004 1003 1005 1004 1004 1003 1004 1004 1003 1004 1004 1003 1002 1001 1003 1003 1005 1006 1006 1005 1006 1007 1006 1013 1032 1064 1095 1110 1121 1129 1138 1147 1154 1160 1165 1170 1175 1180 1185 1188 1190 1193 1191 1189 1188 1189 1194 1194 1196 1196 1196 1194 1195 1197 1198 1199 1199 1200 1201 1201 1201 1202 1202 1203 1202 1203 1203 1204 1202 1200 1200 1200 1200 1199 1199 1199 1200 1201 1201 1201 1200 1199 1200 1200 1201 1199 1197 1197 1197 1198 1198 1198 1197 1196 1196 1195 1197 1198 1200 1199 1198 1196 1197 1197 1197 1196 1196 1196 1195 1195 1195 1196 1198 1197 1196 1195 1195 1195 1196 1197 1196 1195 1195 1196 1197 1197 1199 1198 1197 1196 1197 1196 1196 1194 1194 1194 1194 1194 1194 1194 1194 1196 1197 1196 1195 1196 1196 1196 1196 1195 1196 1196 1197 1196 1194 1192 1191 1192 1194 1195 1195 1195 1196 1196 1194 1194 1193 1194 1194 1196 1196 1195 1194 1195 1195 1196 1196 1196 1196 1197 1197 1196 1196 1195 1195 1196 1195 1195 1194 1194 1196 1195 1196 1197 1197 1197 1196 1196 1196 1196 1196 1196 1196 1196 1196 1196 1196 1196 1196 1196 1196 1197 1197 1196 1195 1194 1195 1196 1197 1198 1198 1197 1197 1196 1195 1196 1198 1197 1198 1196 1196 1196 1197 1197 1197 1197 1198 1197 1196 1198 1197 1198 1197 1198 1197 1195 1196 1197 1199 1198 1199 1199 1199 1197 1197 1197 1197 1197 1197 1197 1197 1197 1197 1197 1198 1199 1198 1198 1198 1197 1198 1198 1199 1198 1200 1200 1200 1200 1199 1199 1198 1199 1199 1199 1199 1201 1200 1201 1200 1201 1200 1201 1200 1202 1202 1202 1201 1201 1200 1200 1200 1202 1203 1202 1202 1202 1203 1204 1203 1203 1200 1201 1202 1204 1204 1203 1203 1204 1203 1203 1204 1205 1207 1206 1205 1204 1205 1205 1207 1207 1207 1207 1207 1208 1207 1208 1207 1209 1209 1210 1212 1211 1210 1208 1209 1210 1211 1211 1211 1211 1211 1210 1209 1211 1210 1210 1208 1209 1208 1208 1207 1207 1208 1208 1206 1204 1205 1208 1212 1214 1212 1211 1210 1209 1206 1201 1199 1196 1193 1188 1185 1182 1180 1178 1176 1173 1170 1166 1161 1159 1155 1151 1146 1142 1139 1135 1133 1124 1101 1066 1039 1028 1023 1021 1022 1023 0 0 0 1736 1736 1712 1725 1743 1737 1729 1729 1727 1738 1790 1782 1780 1782 1783 1769 1743 1735 0
    0 0 0 0 0 0 0 0 0 1720 0 1722 1768 1721 1771 1749 0 0 1765 0 1700 0 0 0 1737 0 0 0 0 0 0 0 1684 1705 1712 1710 1710 1705 1709 1723 1721 0 0 0 0 1021 1018 1011 1008 1002 1002 1000 1001 1001 1002 1001 1002 1002 1003 1002 1002 1002 1002 1003 1001 1001 1000 1001 1002 1002 1002 1001 1002 1002 1002 1000 1000 1000 1003 1003 1003 1001 1002 1003 1004 1004 1005 1005 1005 1003 1005 1005 1007 1007 1006 1005 1004 1003 1003 1003 1006 1006 1007 1004 1004 1005 1007 1013 1033 1064 1096 1112 1123 1130 1139 1148 1156 1161 1166 1170 1176 1180 1185 1188 1191 1193 1192 1190 1188 1190 1193 1195 1197 1195 1194 1194 1196 1198 1198 1199 1199 1200 1201 1201 1201 1200 1201 1203 1202 1204 1202 1203 1200 1200 1200 1201 1200 1198 1198 1200 1201 1201 1200 1198 1200 1200 1201 1201 1201 1200 1198 1198 1197 1199 1198 1198 1196 1195 1197 1196 1196 1196 1197 1196 1196 1196 1196 1196 1197 1197 1197 1198 1197 1197 1196 1196 1196 1196 1195 1194 1195 1195 1196 1196 1195 1195 1195 1195 1196 1196 1197 1196 1196 1197 1198 1198 1197 1195 1194 1194 1195 1195 1194 1195 1195 1196 1196 1195 1194 1193 1194 1194 1195 1195 1195 1195 1196 1196 1195 1194 1194 1195 1195 1196 1195 1196 1196 1197 1195 1195 1194 1194 1193 1194 1194 1193 1192 1194 1194 1196 1196 1196 1195 1196 1196 1196 1195 1196 1195 1196 1196 1196 1195 1195 1196 1197 1196 1197 1197 1197 1196 1195 1194 1195 1196 1198 1197 1196 1197 1197 1197 1196 1196 1196 1196 1196 1196 1195 1194 1194 1194 1197 1198 1198 1196 1196 1196 1196 1196 1196 1198 1197 1197 1196 1196 1197 1196 1197 1196 1197 1197 1197 1196 1196 1196 1198 1198 1198 1198 1196 1197 1198 1200 1198 1198 1199 1198 1198 1197 1198 1197 1197 1196 1196 1196 1197 1195 1195 1196 1198 1199 1199 1198 1197 1197 1197 1198 1197 1199 1199 1200 1200 1199 1199 1197 1197 1198 1199 1199 1200 1199 1199 1199 1201 1201 1201 1201 1202 1202 1202 1202 1202 1200 1201 1202 1202 1202 1201 1200 1201 1202 1204 1202 1202 1199 1199 1200 1203 1203 1203 1202 1202 1202 1203 1205 1207 1208 1207 1207 1205 1206 1206 1206 1205 1207 1207 1207 1208 1207 1209 1207 1208 1208 1211 1212 1212 1210 1209 1209 1210 1211 1212 1211 1210 1210 1210 1211 1211 1210 1210 1208 1209 1208 1209 1208 1208 1208 1207 1207 1205 1206 1209 1212 1213 1211 1210 1210 1209 1206 1201 1199 1196 1193 1188 1185 1183 1180 1179 1177 1175 1171 1166 1162 1159 1156 1150 1146 1142 1140 1136 1133 1126 1101 1066 1038 1029 1025 1024 1024 1026 1018 0 0 1743 1737 1727 1731 1741 1742 1744 1730 1732 1743 1767 1771 1767 1787 1782 1759 1772 1751 0
    0 0 0 0 0 0 1742 0 0 0 0 0 1756 1778 1754 1760 1690 1713 1756 1737 1715 0 0 0 0 0 0 0 0 0 1069 0 1718 1713 1709 1706 1702 1692 1703 1717 1713 0 0 0 1067 1032 1017 1011 1008 1002 1002 1001 1002 1001 1001 1000 1000 1002 1002 1001 1001 1002 1003 1003 1001 1001 1002 1002 1002 1003 1004 1003 1003 1001 1001 1000 1001 1000 1002 1001 1002 1000 1001 1001 1004 1004 1005 1005 1007 1005 1004 1004 1006 1007 1006 1007 1005 1004 1004 1005 1006 1006 1006 1005 1004 1006 1008 1014 1032 1063 1095 1112 1123 1132 1140 1149 1157 1162 1168 1173 1178 1182 1186 1189 1194 1195 1193 1190 1189 1191 1195 1195 1195 1194 1193 1194 1196 1199 1199 1199 1197 1198 1199 1200 1200 1200 1200 1202 1201 1202 1200 1203 1200 1200 1199 1202 1200 1200 1199 1201 1201 1201 1201 1200 1201 1200 1199 1199 1199 1200 1198 1197 1197 1197 1197 1196 1195 1195 1197 1197 1196 1195 1194 1194 1195 1197 1196 1196 1196 1197 1197 1198 1198 1197 1196 1196 1196 1196 1196 1195 1195 1195 1196 1196 1196 1195 1196 1196 1196 1196 1196 1197 1197 1197 1198 1198 1197 1195 1194 1195 1195 1195 1194 1194 1194 1194 1194 1194 1193 1193 1193 1193 1194 1194 1194 1194 1195 1195 1194 1194 1195 1195 1196 1196 1196 1196 1196 1196 1194 1196 1196 1196 1195 1194 1194 1193 1193 1195 1196 1196 1194 1194 1194 1196 1195 1194 1194 1195 1195 1195 1195 1195 1195 1195 1197 1197 1197 1197 1197 1196 1195 1195 1195 1196 1196 1197 1196 1196 1196 1195 1196 1195 1195 1194 1195 1196 1196 1194 1194 1194 1196 1197 1198 1196 1194 1194 1195 1196 1196 1196 1197 1197 1198 1197 1198 1198 1198 1197 1197 1197 1197 1198 1197 1197 1197 1198 1198 1198 1198 1197 1197 1198 1199 1199 1197 1197 1197 1197 1196 1197 1196 1197 1196 1197 1196 1197 1195 1195 1196 1198 1200 1199 1198 1196 1197 1197 1199 1197 1198 1197 1199 1199 1200 1200 1198 1197 1197 1198 1199 1200 1199 1199 1199 1201 1201 1201 1200 1202 1202 1202 1202 1203 1202 1202 1202 1202 1201 1200 1199 1202 1203 1204 1203 1203 1200 1199 1201 1203 1204 1203 1204 1204 1204 1204 1205 1206 1208 1207 1206 1205 1205 1205 1204 1204 1206 1208 1209 1209 1208 1209 1208 1208 1210 1212 1212 1211 1209 1210 1210 1211 1212 1212 1211 1210 1210 1211 1212 1211 1210 1210 1211 1210 1209 1209 1208 1208 1207 1207 1206 1205 1207 1210 1214 1214 1213 1211 1210 1207 1205 1201 1199 1196 1193 1190 1188 1185 1181 1178 1175 1174 1172 1167 1163 1160 1156 1151 1145 1141 1137 1136 1134 1127 1102 1066 1039 1030 1025 1023 1023 1026 1037 0 0 1750 1752 1745 1740 1758 1768 1762 1751 1730 1745 1760 1772 1767 1750 1772 1763 1757 1754 0
    0 0 0 0 0 0 1774 1758 0 0 0 0 1734 0 1691 1750 1727 0 0 0 1756 1759 0 0 0 0 0 0 1739 0 1071 0 0 1701 1703 1709 1714 1705 1710 1722 1724 1710 0 0 1042 1018 1019 1013 1010 1004 1003 1001 1000 999 999 1000 1001 1002 1002 1002 1001 1002 1002 1002 1002 1003 1004 1004 1003 1002 1002 1001 1002 1001 1002 1002 1002 1002 1002 1002 1003 1002 1002 1001 1004 1005 1006 1005 1006 1005 1005 1005 1006 1006 1005 1006 1006 1005 1005 1006 1006 1007 1005 1004 1004 1006 1007 1013 1032 1064 1095 1113 1124 1133 1140 1148 1155 1159 1167 1173 1180 1183 1187 1189 1194 1195 1194 1192 1190 1191 1193 1194 1194 1194 1196 1197 1198 1200 1199 1200 1197 1198 1197 1199 1199 1200 1200 1202 1202 1202 1200 1201 1200 1200 1200 1202 1201 1201 1199 1201 1200 1201 1201 1201 1202 1201 1200 1198 1199 1200 1199 1198 1198 1198 1198 1196 1196 1197 1197 1197 1195 1194 1194 1196 1197 1199 1197 1197 1196 1198 1198 1199 1198 1197 1196 1196 1196 1194 1194 1194 1194 1195 1196 1195 1195 1195 1196 1196 1195 1194 1195 1195 1196 1196 1197 1197 1197 1195 1194 1195 1195 1195 1194 1194 1194 1193 1193 1192 1193 1193 1193 1194 1194 1194 1194 1194 1194 1194 1194 1194 1195 1195 1195 1195 1196 1195 1195 1195 1195 1196 1195 1195 1195 1195 1194 1193 1193 1194 1195 1195 1194 1194 1195 1196 1195 1194 1194 1196 1196 1196 1195 1196 1195 1197 1197 1198 1196 1196 1196 1196 1195 1195 1196 1197 1196 1197 1196 1196 1196 1196 1197 1196 1195 1194 1195 1196 1196 1195 1194 1195 1196 1197 1197 1195 1194 1195 1195 1196 1197 1196 1196 1196 1197 1197 1198 1197 1197 1197 1196 1196 1196 1197 1197 1196 1197 1198 1199 1199 1199 1198 1198 1198 1198 1198 1197 1197 1196 1197 1196 1198 1198 1198 1197 1198 1196 1198 1196 1196 1195 1197 1199 1198 1198 1198 1199 1199 1199 1197 1198 1198 1199 1200 1199 1200 1198 1199 1198 1199 1199 1199 1199 1199 1199 1201 1201 1201 1201 1202 1202 1202 1201 1201 1201 1202 1202 1202 1201 1201 1200 1202 1202 1203 1202 1202 1202 1201 1201 1201 1202 1202 1203 1205 1203 1204 1204 1206 1206 1206 1206 1206 1205 1206 1205 1204 1205 1206 1207 1207 1208 1209 1209 1210 1210 1211 1212 1211 1210 1211 1212 1212 1211 1211 1211 1210 1210 1210 1211 1210 1211 1211 1212 1212 1210 1209 1209 1208 1207 1207 1207 1206 1208 1210 1215 1215 1215 1212 1210 1206 1204 1201 1198 1196 1194 1191 1189 1185 1181 1178 1175 1173 1171 1167 1163 1159 1155 1151 1145 1142 1138 1137 1133 1128 1102 1066 1037 1029 1024 1021 1020 1024 0 0 0 1734 1749 1739 1739 1762 1781 1787 1775 1743 1738 1749 1763 1760 1743 1722 1748 1748 1742 0
    0 0 0 0 0 0 0 0 0 0 0 0 0 1684 1700 1744 1715 1777 0 0 1761 0 0 0 0 0 0 0 1761 0 0 0 0 1691 1697 1719 1734 1730 1717 1748 1751 1714 0 0 1020 1020 1019 1018 1008 1003 1000 1000 999 999 999 1001 1001 1001 1000 1000 1000 1002 1002 1002 1002 1003 1002 1003 1002 1002 1002 1001 1001 1001 1003 1003 1003 1003 1001 1001 1003 1003 1004 1003 1004 1004 1004 1003 1004 1006 1005 1004 1003 1004 1004 1004 1004 1005 1005 1006 1006 1007 1004 1005 1005 1006 1007 1013 1033 1065 1096 1113 1125 1134 1142 1149 1155 1160 1167 1174 1181 1184 1187 1190 1193 1196 1194 1191 1190 1191 1193 1193 1194 1195 1197 1197 1197 1199 1199 1200 1197 1199 1198 1199 1199 1200 1200 1203 1203 1202 1200 1201 1201 1200 1199 1200 1200 1202 1200 1201 1199 1200 1201 1202 1202 1203 1200 1199 1198 1198 1198 1197 1196 1197 1199 1198 1196 1196 1197 1197 1195 1195 1195 1197 1197 1198 1197 1198 1197 1198 1197 1197 1196 1196 1195 1196 1196 1195 1195 1194 1195 1195 1196 1195 1195 1196 1196 1196 1195 1195 1195 1195 1197 1196 1196 1196 1196 1196 1195 1195 1194 1194 1194 1194 1194 1193 1193 1193 1194 1194 1194 1194 1195 1194 1195 1195 1195 1194 1194 1195 1196 1195 1195 1194 1195 1196 1196 1196 1195 1195 1194 1194 1195 1196 1196 1194 1195 1195 1196 1194 1193 1193 1194 1195 1195 1194 1194 1196 1196 1196 1195 1194 1194 1196 1196 1197 1196 1197 1197 1196 1195 1195 1197 1197 1196 1196 1196 1195 1195 1195 1195 1194 1195 1195 1196 1197 1197 1196 1195 1194 1195 1194 1194 1195 1196 1196 1195 1196 1197 1196 1195 1196 1197 1198 1197 1196 1196 1196 1198 1197 1197 1196 1196 1197 1198 1199 1199 1198 1198 1197 1196 1196 1197 1198 1197 1197 1196 1195 1195 1197 1197 1198 1197 1198 1197 1198 1197 1196 1195 1196 1198 1197 1198 1198 1200 1200 1200 1197 1197 1198 1198 1197 1197 1198 1199 1200 1199 1199 1199 1200 1201 1200 1200 1199 1201 1200 1201 1201 1202 1200 1200 1201 1202 1203 1202 1201 1201 1201 1202 1202 1203 1203 1203 1203 1203 1203 1203 1201 1202 1202 1204 1205 1204 1204 1203 1204 1204 1205 1204 1205 1205 1206 1206 1205 1206 1206 1207 1207 1207 1208 1209 1210 1209 1209 1210 1211 1210 1210 1210 1210 1210 1209 1211 1210 1209 1208 1210 1209 1210 1210 1212 1212 1210 1208 1207 1207 1207 1207 1207 1207 1207 1209 1213 1215 1216 1214 1211 1208 1205 1202 1198 1195 1193 1192 1190 1186 1182 1178 1174 1172 1169 1165 1161 1158 1154 1150 1145 1142 1138 1138 1134 1128 1104 1068 1039 1029 1024 1021 1020 1021 0 0 0 1757 1727 1734 1738 1749 1768 1787 1781 1766 1744 1757 1758 1756 1742 1749 1749 1758 1752 0
    0 0 0 0 0 0 0 0 0 0 0 0 0 1704 1717 1730 1738 1726 1753 1743 1691 0 1686 0 0 0 0 1742 0 0 0 0 0 1689 1698 1706 1737 1731 1732 0 0 0 0 0 0 1023 1021 1019 1010 1004 1000 1000 998 999 999 1001 1001 1000 1000 1001 1000 1000 1000 1002 1003 1003 1003 1002 1002 1001 1001 1000 1000 1001 1003 1004 1004 1003 1001 1001 1003 1005 1006 1005 1004 1004 1004 1003 1004 1006 1006 1006 1005 1005 1005 1005 1005 1006 1006 1006 1006 1006 1004 1004 1005 1007 1006 1013 1034 1066 1096 1113 1126 1134 1141 1148 1154 1160 1166 1174 1179 1184 1186 1189 1192 1196 1194 1192 1190 1190 1192 1192 1195 1196 1197 1196 1196 1198 1199 1200 1199 1200 1199 1200 1199 1199 1200 1201 1203 1202 1202 1202 1202 1200 1200 1200 1201 1201 1201 1200 1199 1199 1199 1199 1200 1200 1198 1198 1197 1198 1197 1197 1197 1198 1199 1199 1197 1197 1196 1196 1196 1195 1196 1196 1197 1198 1197 1198 1196 1197 1197 1196 1195 1195 1195 1195 1195 1195 1195 1195 1196 1196 1195 1194 1195 1195 1194 1193 1194 1194 1195 1195 1196 1195 1195 1195 1195 1195 1194 1194 1193 1194 1195 1195 1194 1194 1193 1194 1194 1194 1194 1195 1196 1195 1195 1194 1195 1194 1195 1195 1196 1196 1196 1194 1195 1195 1196 1196 1195 1194 1193 1193 1195 1196 1196 1195 1196 1196 1195 1194 1194 1195 1196 1195 1194 1194 1194 1195 1196 1196 1195 1194 1194 1195 1195 1197 1197 1198 1196 1196 1195 1196 1197 1196 1196 1196 1196 1195 1196 1196 1196 1195 1196 1196 1196 1197 1197 1198 1196 1195 1194 1193 1194 1196 1197 1197 1195 1195 1196 1196 1195 1196 1196 1197 1196 1195 1195 1195 1197 1197 1197 1196 1196 1196 1197 1198 1199 1198 1198 1197 1195 1195 1196 1197 1196 1196 1196 1196 1196 1196 1196 1197 1197 1197 1196 1196 1196 1195 1195 1196 1197 1198 1198 1199 1200 1199 1198 1196 1196 1197 1197 1197 1196 1198 1198 1200 1200 1201 1200 1200 1201 1201 1199 1198 1199 1200 1201 1201 1201 1201 1201 1202 1202 1203 1202 1202 1202 1202 1202 1202 1202 1203 1203 1203 1203 1203 1203 1202 1202 1201 1201 1203 1203 1203 1203 1204 1204 1204 1205 1205 1206 1206 1207 1206 1206 1206 1205 1205 1204 1207 1208 1209 1209 1209 1210 1210 1210 1210 1209 1210 1210 1210 1211 1211 1209 1208 1209 1209 1209 1209 1211 1211 1211 1211 1210 1208 1207 1207 1207 1206 1206 1209 1212 1215 1215 1215 1212 1208 1205 1203 1199 1196 1193 1191 1188 1184 1181 1178 1175 1172 1169 1165 1161 1157 1153 1150 1146 1143 1141 1139 1135 1129 1105 1070 1039 1029 1024 1023 1023 1026 0 0 0 1760 1751 1735 1737 1741 1749 1752 1759 0 1767 1757 1751 1751 1745 1765 1769 1759 1755 0
    0 0 1786 0 0 0 0 0 0 0 0 0 0 0 1739 1753 0 0 1729 1737 1723 1727 0 1742 0 0 0 1695 1681 0 0 0 0 1685 1689 1693 1683 1704 0 0 0 0 0 0 0 1030 1014 1015 1009 1004 1001 1000 1000 1000 1000 1001 1000 999 999 1000 1000 1000 1001 1001 1002 1003 1003 1002 1002 1002 1002 1002 1002 1002 1003 1003 1003 1002 1000 1001 1003 1005 1006 1005 1005 1004 1002 1003 1003 1006 1006 1005 1004 1005 1005 1005 1005 1005 1005 1005 1004 1005 1004 1006 1006 1007 1006 1013 1034 1066 1097 1113 1127 1135 1142 1149 1156 1162 1168 1174 1179 1183 1186 1189 1192 1195 1194 1190 1189 1189 1191 1191 1194 1196 1197 1197 1196 1197 1198 1199 1199 1199 1201 1201 1200 1198 1199 1201 1203 1203 1204 1204 1203 1201 1200 1200 1202 1202 1202 1200 1199 1198 1198 1198 1199 1199 1197 1197 1197 1196 1196 1197 1197 1197 1196 1196 1195 1196 1195 1195 1196 1197 1198 1196 1196 1196 1196 1197 1196 1196 1196 1196 1196 1195 1195 1195 1195 1195 1196 1197 1198 1196 1195 1193 1194 1194 1194 1194 1196 1196 1197 1195 1196 1195 1195 1195 1195 1195 1194 1194 1194 1196 1196 1196 1195 1194 1194 1195 1195 1195 1195 1195 1195 1194 1195 1195 1196 1197 1197 1196 1196 1196 1197 1196 1196 1196 1196 1196 1195 1193 1192 1192 1194 1195 1195 1195 1195 1195 1195 1193 1194 1195 1196 1195 1194 1194 1195 1196 1197 1195 1195 1194 1195 1195 1196 1196 1196 1198 1196 1195 1194 1194 1196 1196 1197 1196 1196 1195 1196 1194 1194 1193 1195 1196 1196 1196 1197 1196 1196 1195 1195 1195 1195 1197 1197 1196 1195 1195 1196 1196 1196 1196 1196 1197 1196 1196 1196 1196 1197 1196 1198 1197 1197 1196 1197 1197 1198 1197 1198 1196 1196 1196 1196 1197 1197 1196 1196 1195 1195 1195 1195 1196 1198 1199 1199 1196 1196 1195 1196 1196 1197 1198 1199 1198 1199 1199 1198 1197 1196 1197 1198 1196 1197 1198 1199 1199 1200 1200 1201 1200 1200 1200 1199 1199 1199 1200 1201 1200 1201 1202 1202 1203 1203 1203 1201 1201 1201 1201 1201 1201 1202 1203 1204 1205 1204 1204 1203 1203 1202 1202 1202 1203 1204 1204 1204 1204 1205 1204 1204 1203 1204 1204 1205 1206 1206 1207 1206 1205 1204 1206 1207 1208 1208 1209 1210 1210 1209 1209 1208 1209 1209 1210 1211 1211 1210 1209 1209 1209 1209 1210 1211 1211 1210 1210 1210 1210 1208 1208 1206 1205 1205 1208 1212 1215 1215 1214 1211 1209 1206 1203 1200 1196 1193 1190 1187 1184 1180 1177 1175 1172 1168 1165 1161 1157 1153 1150 1146 1144 1142 1140 1135 1128 1105 1069 1040 1028 1024 1023 1024 1028 0 0 0 1758 1768 1749 1738 1748 1757 1755 1745 1771 1774 1759 1742 1729 1753 1770 1768 1757 1738 0
    0 1761 0 0 0 0 0 0 0 0 0 0 0 0 0 1768 1762 1718 1718 1726 0 1726 1730 0 0 0 1682 1681 1657 0 0 0 0 0 1615 1666 1675 0 0 1448 1454 1440 1435 1413 0 1038 1019 1015 1010 1004 1002 1000 999 999 1000 1000 1000 1000 1000 1001 1001 1001 1001 1001 1002 1001 1003 1002 1002 1001 1002 1002 1002 1001 1002 1002 1003 1002 1002 1002 1004 1005 1005 1004 1006 1006 1005 1004 1004 1004 1005 1006 1005 1005 1005 1006 1005 1003 1003 1003 1004 1005 1005 1006 1007 1008 1008 1014 1032 1064 1096 1113 1126 1133 1141 1148 1155 1162 1167 1173 1178 1182 1187 1190 1193 1194 1194 1191 1190 1189 1191 1192 1195 1196 1196 1197 1197 1199 1199 1200 1200 1200 1200 1200 1199 1198 1199 1201 1202 1202 1203 1204 1203 1202 1201 1202 1203 1203 1202 1200 1199 1198 1198 1198 1199 1198 1197 1195 1196 1197 1198 1199 1199 1199 1197 1196 1196 1197 1196 1196 1197 1197 1196 1195 1195 1196 1197 1198 1197 1197 1197 1196 1196 1195 1196 1195 1195 1194 1194 1195 1197 1196 1195 1193 1193 1193 1193 1193 1195 1196 1197 1196 1196 1195 1194 1195 1196 1195 1195 1195 1195 1196 1196 1196 1193 1194 1193 1196 1195 1196 1195 1194 1194 1193 1193 1194 1196 1198 1198 1196 1195 1196 1197 1196 1196 1195 1195 1195 1196 1194 1193 1193 1194 1195 1194 1194 1194 1195 1195 1194 1194 1196 1196 1196 1194 1194 1195 1195 1196 1196 1196 1194 1196 1196 1198 1197 1197 1197 1196 1196 1195 1195 1196 1197 1197 1197 1196 1196 1196 1196 1195 1195 1196 1196 1196 1195 1195 1194 1196 1197 1197 1196 1196 1196 1196 1196 1195 1195 1195 1196 1195 1196 1195 1196 1196 1196 1196 1195 1194 1194 1196 1197 1197 1196 1196 1195 1195 1195 1195 1195 1196 1197 1196 1197 1196 1196 1196 1196 1196 1196 1196 1197 1198 1199 1199 1197 1196 1196 1197 1198 1199 1199 1199 1199 1199 1198 1197 1196 1196 1198 1198 1197 1197 1199 1200 1199 1199 1199 1200 1199 1198 1199 1200 1200 1200 1201 1200 1199 1200 1202 1201 1202 1201 1201 1200 1201 1201 1201 1201 1202 1202 1203 1203 1205 1204 1203 1202 1202 1203 1202 1202 1202 1203 1204 1204 1204 1205 1205 1205 1203 1203 1204 1205 1206 1207 1207 1207 1205 1205 1207 1208 1209 1209 1209 1209 1208 1208 1210 1209 1210 1209 1210 1210 1210 1210 1211 1209 1210 1210 1212 1212 1211 1210 1210 1211 1211 1209 1209 1206 1205 1204 1207 1212 1216 1215 1213 1211 1209 1207 1203 1200 1196 1193 1190 1187 1183 1179 1176 1175 1172 1170 1167 1164 1160 1155 1151 1148 1146 1144 1140 1136 1129 1106 1070 1040 1029 1024 1022 1023 1029 1041 0 0 1748 1758 1752 1741 1760 1772 1755 1750 1764 1783 1771 1754 1762 1749 1755 1750 1737 1734 0
    0 0 0 0 0 0 0 0 0 0 1676 0 0 0 1725 1720 1736 0 1674 1699 1725 1719 1718 0 0 1661 1661 1712 0 0 0 0 0 0 0 0 0 0 1458 1456 1446 1445 1441 1418 0 1043 1020 1013 1006 1000 1000 999 1000 1000 1000 1000 1000 1000 1000 1000 999 1001 1002 1002 1001 1001 1002 1001 1002 1002 1002 1002 1002 1003 1002 1001 1001 1002 1002 1003 1004 1005 1004 1004 1006 1006 1005 1004 1004 1004 1004 1006 1005 1004 1004 1005 1004 1003 1003 1004 1005 1006 1007 1007 1006 1007 1009 1015 1032 1065 1097 1115 1126 1135 1143 1151 1157 1163 1168 1174 1178 1182 1187 1189 1192 1193 1193 1190 1190 1190 1192 1193 1195 1196 1195 1197 1197 1198 1197 1199 1199 1200 1199 1199 1198 1199 1201 1203 1203 1202 1202 1203 1203 1202 1200 1201 1203 1203 1201 1199 1198 1198 1198 1199 1199 1199 1197 1197 1197 1198 1199 1199 1198 1198 1197 1197 1197 1197 1197 1197 1198 1198 1196 1196 1195 1196 1196 1197 1198 1198 1197 1197 1196 1196 1196 1197 1197 1195 1195 1195 1196 1195 1195 1193 1193 1193 1194 1195 1196 1196 1196 1196 1196 1195 1195 1196 1196 1195 1195 1196 1196 1196 1195 1194 1193 1194 1195 1196 1196 1195 1195 1194 1193 1192 1192 1194 1197 1199 1199 1196 1196 1196 1197 1196 1196 1194 1194 1195 1196 1195 1194 1194 1195 1195 1194 1193 1194 1194 1196 1195 1194 1194 1195 1195 1194 1194 1196 1196 1197 1196 1196 1196 1197 1197 1197 1196 1197 1196 1196 1196 1195 1195 1195 1195 1196 1196 1198 1197 1196 1195 1195 1195 1196 1196 1196 1195 1193 1192 1195 1196 1197 1197 1197 1197 1197 1197 1196 1195 1195 1196 1196 1196 1195 1195 1196 1196 1196 1195 1195 1194 1195 1196 1197 1196 1196 1196 1195 1195 1197 1197 1197 1197 1197 1197 1197 1197 1196 1196 1196 1196 1197 1197 1197 1199 1200 1199 1197 1196 1196 1196 1198 1199 1199 1199 1199 1198 1197 1196 1196 1197 1198 1198 1199 1199 1200 1198 1198 1198 1199 1198 1199 1199 1201 1201 1201 1201 1200 1199 1199 1200 1200 1201 1200 1201 1200 1200 1201 1201 1201 1202 1202 1202 1202 1204 1204 1204 1203 1204 1204 1204 1202 1202 1203 1204 1205 1205 1206 1206 1205 1204 1203 1205 1207 1208 1208 1207 1207 1205 1206 1208 1210 1210 1209 1208 1208 1208 1208 1209 1209 1208 1208 1209 1210 1209 1211 1211 1210 1210 1211 1213 1214 1211 1210 1208 1209 1210 1209 1209 1207 1205 1204 1208 1213 1215 1214 1212 1210 1209 1205 1201 1197 1195 1192 1191 1188 1185 1181 1177 1175 1172 1170 1167 1165 1161 1157 1151 1147 1146 1144 1143 1138 1131 1107 1070 1039 1028 1023 1022 1023 1028 0 0 0 0 1732 1735 1733 1747 1766 1753 1757 1762 1786 1781 1766 1762 1756 1752 1745 1738 1758 0
    0 0 0 0 0 0 0 0 0 0 0 1716 0 0 0 1744 1720 1662 1662 1724 1713 1756 1730 0 0 1660 0 0 0 0 0 0 0 0 0 0 1470 1440 1435 1449 1455 1449 1437 1416 0 1036 1018 1014 1006 1000 999 1000 1001 1001 1000 999 1000 1001 1001 1000 999 1001 1001 1001 1001 1000 1002 1001 1002 1002 1001 1001 1001 1002 1003 1002 1003 1003 1002 1003 1004 1005 1005 1004 1004 1005 1006 1005 1004 1002 1003 1004 1005 1004 1003 1004 1004 1004 1004 1004 1006 1006 1007 1006 1006 1008 1010 1017 1034 1066 1097 1114 1125 1135 1143 1151 1157 1163 1168 1174 1178 1182 1186 1189 1192 1194 1193 1191 1190 1190 1191 1193 1195 1196 1195 1196 1196 1198 1198 1200 1200 1200 1198 1198 1197 1199 1202 1204 1202 1201 1200 1202 1201 1200 1198 1200 1201 1203 1201 1200 1198 1199 1199 1199 1198 1198 1197 1197 1197 1199 1199 1200 1198 1198 1198 1198 1197 1197 1197 1198 1199 1198 1196 1195 1196 1195 1196 1199 1200 1199 1197 1196 1195 1195 1195 1196 1196 1194 1193 1193 1195 1194 1194 1192 1194 1194 1195 1194 1195 1194 1195 1195 1196 1195 1195 1195 1195 1195 1196 1196 1196 1194 1193 1193 1193 1195 1195 1197 1196 1195 1194 1194 1193 1192 1191 1193 1194 1197 1197 1196 1195 1196 1197 1196 1195 1193 1194 1195 1196 1196 1195 1196 1195 1194 1193 1193 1194 1195 1195 1195 1194 1194 1194 1195 1194 1193 1194 1194 1196 1196 1196 1196 1197 1197 1197 1197 1196 1196 1196 1197 1197 1197 1195 1194 1195 1196 1198 1197 1196 1195 1196 1196 1197 1196 1196 1195 1193 1193 1196 1197 1197 1195 1195 1195 1196 1196 1194 1194 1193 1195 1195 1196 1194 1194 1194 1195 1195 1195 1196 1195 1195 1194 1194 1195 1195 1196 1195 1195 1196 1198 1198 1196 1196 1196 1196 1196 1196 1197 1197 1198 1198 1198 1197 1198 1198 1198 1196 1197 1196 1197 1196 1198 1197 1198 1198 1198 1197 1197 1196 1196 1196 1197 1198 1199 1198 1198 1198 1198 1198 1197 1197 1199 1200 1201 1201 1201 1198 1197 1198 1200 1200 1200 1199 1200 1201 1202 1202 1202 1202 1202 1201 1202 1202 1203 1203 1204 1204 1205 1206 1205 1203 1202 1201 1203 1204 1206 1206 1207 1205 1205 1204 1207 1209 1209 1209 1208 1208 1206 1206 1208 1210 1209 1208 1208 1207 1208 1208 1209 1209 1208 1208 1208 1209 1209 1211 1211 1211 1211 1212 1212 1212 1209 1210 1209 1210 1209 1208 1207 1206 1206 1206 1209 1214 1215 1214 1212 1210 1207 1203 1200 1197 1195 1194 1192 1188 1185 1181 1178 1175 1172 1170 1167 1165 1162 1159 1153 1148 1146 1144 1144 1139 1131 1106 1069 1039 1028 1025 1024 1025 1029 0 0 0 0 1742 1720 1719 1725 1733 1752 1771 1787 1783 1760 1759 1769 1761 1760 1744 1722 1733 0
    0 0 0 0 1708 0 0 0 0 0 0 1708 1777 1736 1735 1715 1737 0 1682 1748 1772 0 1765 1772 0 0 0 0 0 0 0 0 0 0 1493 1485 1464 1453 1452 1455 1459 1447 1440 0 0 1031 1016 1010 1004 998 998 1000 1001 1001 999 1000 1001 1002 1000 999 1000 1001 1001 1000 1001 1001 1002 1002 1002 1003 1002 1002 1001 1002 1003 1003 1003 1002 1002 1003 1004 1005 1005 1005 1004 1005 1006 1004 1004 1003 1004 1005 1006 1005 1004 1003 1005 1006 1006 1005 1005 1007 1007 1006 1005 1008 1010 1017 1035 1067 1098 1114 1125 1135 1144 1152 1158 1165 1169 1175 1179 1182 1184 1188 1191 1194 1194 1190 1188 1189 1193 1195 1194 1194 1194 1197 1197 1198 1199 1200 1201 1200 1198 1198 1198 1201 1202 1203 1202 1203 1202 1202 1200 1199 1198 1199 1201 1201 1200 1199 1198 1199 1199 1200 1199 1198 1198 1198 1198 1198 1198 1198 1197 1198 1197 1198 1196 1197 1197 1199 1200 1200 1198 1198 1196 1196 1197 1199 1198 1197 1195 1195 1195 1195 1195 1196 1196 1195 1194 1193 1194 1193 1194 1192 1194 1195 1196 1195 1195 1194 1194 1194 1195 1195 1194 1194 1194 1194 1196 1196 1195 1193 1193 1193 1194 1195 1196 1196 1195 1194 1193 1193 1194 1194 1194 1194 1194 1196 1196 1196 1196 1195 1196 1196 1194 1193 1193 1196 1196 1196 1195 1195 1194 1194 1193 1194 1194 1194 1195 1196 1196 1195 1194 1193 1193 1193 1194 1194 1195 1196 1197 1197 1197 1197 1196 1196 1194 1194 1193 1194 1195 1195 1195 1193 1194 1195 1198 1197 1196 1194 1195 1195 1196 1196 1196 1195 1194 1195 1196 1197 1196 1195 1195 1196 1195 1196 1194 1194 1193 1195 1196 1196 1195 1195 1195 1196 1196 1196 1196 1195 1194 1194 1194 1195 1196 1197 1196 1196 1198 1199 1199 1196 1196 1196 1197 1197 1197 1197 1198 1197 1198 1197 1197 1198 1198 1197 1196 1196 1196 1196 1195 1196 1196 1198 1198 1197 1197 1197 1197 1196 1196 1198 1199 1199 1198 1198 1199 1199 1198 1196 1197 1199 1200 1200 1201 1201 1199 1198 1199 1199 1200 1200 1200 1201 1202 1203 1203 1202 1201 1201 1200 1201 1202 1203 1203 1204 1204 1205 1206 1205 1204 1203 1203 1204 1205 1206 1206 1206 1204 1203 1204 1207 1209 1209 1209 1209 1208 1206 1206 1208 1209 1209 1208 1207 1208 1209 1209 1208 1208 1207 1207 1208 1210 1209 1210 1210 1211 1210 1213 1211 1210 1209 1210 1210 1210 1209 1208 1207 1207 1205 1206 1208 1215 1216 1215 1213 1209 1206 1202 1200 1197 1195 1193 1191 1188 1185 1182 1178 1175 1173 1171 1166 1164 1161 1159 1153 1149 1146 1144 1143 1138 1130 1105 1069 1039 1028 1025 1025 1025 1028 1033 0 0 0 1738 1723 1706 1707 1721 1737 1771 1794 1752 1757 1759 1767 1766 1765 1751 1722 1722 0
    0 0 0 0 1717 1720 1720 0 0 1724 1691 1693 1728 0 1700 1722 0 0 1740 1733 0 1763 1751 0 0 1779 0 0 0 0 0 0 1145 0 1446 1457 1457 1460 1460 1460 1450 1439 0 0 1057 1026 1021 1014 1004 1000 999 1000 1001 1001 1000 1001 1002 1003 1001 1000 1001 1001 1000 999 1001 1002 1004 1003 1002 1002 1002 1002 1002 1001 1003 1004 1004 1002 1003 1003 1003 1003 1003 1004 1003 1004 1004 1003 1002 1002 1004 1004 1004 1003 1004 1005 1006 1006 1005 1005 1007 1007 1006 1005 1005 1008 1010 1017 1035 1068 1099 1115 1125 1134 1142 1150 1156 1163 1168 1174 1178 1182 1185 1189 1192 1195 1194 1192 1188 1189 1192 1194 1195 1195 1195 1196 1198 1198 1199 1200 1201 1201 1199 1200 1199 1201 1200 1202 1202 1202 1202 1202 1200 1199 1198 1200 1200 1200 1199 1199 1198 1199 1199 1199 1199 1198 1198 1198 1198 1198 1198 1199 1199 1199 1198 1197 1196 1196 1196 1197 1198 1199 1198 1197 1195 1195 1196 1198 1198 1196 1195 1194 1194 1194 1195 1195 1195 1193 1193 1193 1194 1193 1193 1192 1193 1194 1195 1194 1194 1193 1194 1193 1194 1194 1194 1193 1193 1194 1196 1196 1195 1193 1193 1194 1194 1195 1195 1194 1194 1194 1193 1194 1195 1194 1194 1194 1194 1194 1194 1195 1196 1196 1194 1195 1194 1194 1195 1197 1196 1196 1194 1195 1194 1194 1193 1193 1194 1194 1194 1195 1196 1196 1195 1194 1194 1195 1194 1194 1194 1195 1195 1195 1196 1196 1196 1195 1194 1194 1193 1195 1195 1196 1196 1195 1194 1195 1196 1197 1195 1196 1195 1196 1196 1196 1195 1194 1194 1195 1197 1196 1195 1193 1193 1194 1194 1195 1193 1194 1193 1194 1195 1196 1196 1195 1195 1196 1196 1196 1195 1196 1195 1195 1194 1194 1195 1196 1195 1195 1196 1197 1198 1197 1194 1194 1194 1195 1195 1196 1197 1198 1198 1198 1197 1196 1196 1195 1194 1195 1196 1196 1195 1196 1197 1198 1197 1198 1198 1197 1196 1196 1197 1198 1198 1199 1197 1198 1198 1199 1198 1198 1197 1199 1199 1200 1200 1200 1199 1199 1199 1200 1200 1200 1200 1200 1202 1202 1202 1200 1201 1200 1201 1202 1203 1204 1204 1203 1203 1202 1204 1204 1204 1203 1204 1205 1205 1204 1205 1206 1204 1203 1203 1206 1206 1207 1208 1208 1208 1207 1206 1207 1208 1208 1207 1207 1208 1209 1209 1209 1208 1209 1209 1210 1210 1210 1210 1210 1211 1211 1212 1210 1209 1208 1210 1210 1210 1208 1208 1207 1207 1204 1204 1206 1213 1215 1215 1213 1210 1206 1203 1200 1198 1195 1194 1190 1187 1184 1181 1178 1177 1175 1172 1167 1165 1160 1157 1152 1150 1147 1145 1141 1135 1127 1105 1071 1040 1030 1025 1024 1023 1026 1020 0 0 0 1734 1727 1719 1723 1731 1707 1749 1759 1764 1771 1784 1786 1745 1759 1755 1723 1729 0
    0 0 0 0 0 0 0 0 0 0 0 1686 1687 0 0 1717 0 0 0 0 1730 1754 1745 1688 1745 1795 0 0 0 0 0 0 0 0 1442 1447 1450 1457 1462 1458 1441 1421 0 0 1058 1023 1019 1015 1004 999 997 998 1000 1000 1000 1002 1002 1002 1000 1001 1001 1002 1002 1001 1003 1003 1004 1003 1003 1003 1003 1004 1003 1002 1002 1003 1003 1002 1002 1002 1002 1002 1002 1004 1003 1004 1002 1002 1002 1004 1005 1004 1003 1004 1004 1006 1006 1005 1004 1005 1006 1007 1005 1005 1005 1007 1008 1015 1035 1070 1101 1116 1126 1135 1142 1150 1157 1164 1169 1173 1177 1181 1185 1188 1190 1194 1193 1191 1188 1190 1193 1195 1196 1196 1197 1197 1198 1199 1200 1200 1202 1201 1201 1201 1200 1200 1199 1200 1202 1203 1203 1202 1202 1201 1201 1200 1201 1199 1198 1197 1197 1197 1198 1200 1201 1200 1199 1199 1199 1198 1198 1198 1199 1198 1199 1197 1197 1197 1197 1198 1198 1198 1198 1198 1195 1195 1196 1196 1195 1195 1196 1195 1195 1196 1196 1195 1196 1195 1195 1195 1195 1195 1194 1193 1193 1193 1194 1194 1195 1194 1193 1193 1194 1195 1195 1194 1192 1193 1195 1196 1195 1194 1195 1195 1194 1194 1194 1194 1194 1194 1195 1194 1194 1193 1193 1194 1195 1195 1193 1194 1195 1195 1194 1194 1193 1194 1194 1196 1195 1195 1194 1194 1194 1194 1195 1195 1195 1194 1193 1193 1194 1195 1195 1195 1195 1195 1195 1194 1194 1194 1195 1194 1194 1194 1196 1195 1194 1193 1193 1193 1195 1195 1195 1194 1194 1196 1196 1197 1197 1197 1196 1196 1195 1196 1195 1194 1194 1194 1196 1194 1193 1192 1193 1195 1194 1195 1194 1195 1195 1194 1196 1196 1196 1195 1196 1197 1197 1196 1195 1195 1196 1196 1196 1195 1195 1195 1194 1194 1195 1196 1197 1197 1195 1195 1195 1197 1196 1196 1197 1197 1197 1196 1196 1196 1196 1195 1195 1194 1195 1195 1196 1197 1198 1199 1199 1199 1199 1197 1196 1198 1198 1199 1198 1199 1198 1197 1197 1198 1197 1198 1199 1200 1201 1200 1201 1201 1201 1201 1200 1200 1199 1199 1200 1200 1201 1200 1201 1199 1201 1200 1201 1201 1202 1203 1203 1203 1202 1201 1203 1203 1203 1203 1205 1206 1206 1204 1204 1205 1203 1203 1203 1206 1206 1206 1207 1208 1208 1207 1206 1207 1208 1210 1209 1209 1209 1210 1209 1209 1209 1210 1210 1211 1210 1210 1209 1211 1211 1210 1210 1209 1209 1209 1211 1210 1208 1207 1208 1208 1206 1203 1203 1206 1212 1215 1215 1213 1210 1207 1205 1202 1199 1196 1193 1190 1186 1183 1180 1178 1177 1175 1173 1168 1166 1159 1157 1151 1150 1147 1145 1140 1135 1128 1106 1072 1042 1031 1024 1023 1022 1025 0 0 0 0 0 1741 1743 1751 1748 1744 1778 1769 1761 1762 1797 1769 1763 1760 1759 1767 1754 0
    0 0 0 0 0 0 0 0 0 0 0 0 0 0 1718 1720 1719 0 0 0 1729 1749 1774 1679 0 0 0 0 0 1352 1393 0 0 0 1436 1440 1449 1453 1450 1442 0 0 0 0 1034 1025 1016 1014 1007 1002 999 999 1001 1002 1002 1001 1002 1002 1001 1001 1001 1002 1002 1002 1003 1003 1003 1003 1002 1003 1004 1004 1003 1002 1003 1003 1003 1002 1001 1002 1001 1002 1002 1003 1002 1004 1003 1003 1002 1003 1004 1004 1002 1003 1005 1006 1006 1004 1004 1005 1006 1006 1006 1006 1005 1006 1006 1015 1035 1070 1100 1116 1126 1135 1142 1150 1156 1163 1168 1173 1176 1182 1186 1189 1190 1194 1194 1192 1189 1191 1192 1193 1195 1197 1199 1199 1199 1199 1199 1199 1201 1200 1201 1201 1200 1199 1200 1202 1203 1203 1202 1201 1202 1202 1201 1200 1199 1199 1198 1197 1197 1198 1199 1200 1201 1202 1202 1201 1201 1201 1200 1198 1198 1198 1198 1197 1197 1197 1198 1197 1198 1199 1198 1197 1195 1194 1194 1195 1195 1196 1197 1196 1194 1195 1196 1197 1196 1195 1194 1195 1195 1195 1193 1192 1193 1194 1194 1194 1195 1194 1194 1194 1195 1196 1195 1194 1192 1194 1195 1196 1194 1194 1194 1195 1193 1193 1193 1193 1194 1194 1195 1195 1194 1193 1192 1193 1194 1195 1194 1194 1194 1196 1195 1194 1194 1195 1195 1195 1195 1195 1195 1194 1193 1194 1195 1195 1195 1194 1193 1193 1194 1196 1197 1197 1196 1196 1195 1194 1194 1194 1194 1193 1193 1193 1194 1194 1195 1194 1194 1194 1196 1197 1196 1196 1196 1197 1195 1196 1196 1197 1196 1196 1195 1196 1194 1195 1194 1194 1194 1194 1193 1193 1194 1196 1195 1195 1195 1196 1195 1195 1196 1195 1194 1193 1194 1195 1195 1195 1195 1196 1196 1196 1195 1194 1193 1194 1194 1195 1195 1196 1197 1197 1195 1194 1195 1197 1196 1196 1196 1197 1196 1196 1195 1196 1196 1195 1195 1195 1195 1195 1196 1197 1198 1199 1199 1200 1198 1196 1195 1196 1197 1199 1198 1198 1197 1196 1196 1196 1197 1197 1198 1199 1200 1199 1199 1199 1200 1200 1200 1200 1199 1199 1199 1199 1200 1200 1201 1200 1202 1202 1202 1203 1202 1203 1203 1203 1204 1203 1204 1204 1203 1202 1203 1204 1206 1205 1204 1205 1204 1205 1204 1205 1205 1204 1205 1207 1208 1207 1206 1206 1208 1210 1210 1211 1210 1209 1208 1209 1209 1211 1211 1212 1210 1210 1211 1212 1212 1211 1210 1209 1209 1210 1212 1211 1208 1207 1208 1207 1205 1203 1204 1207 1211 1213 1213 1212 1210 1208 1205 1202 1200 1197 1194 1190 1186 1182 1180 1178 1178 1175 1173 1169 1166 1161 1156 1152 1150 1148 1144 1139 1133 1127 1105 1070 1041 1031 1025 1021 1021 1027 0 0 0 0 0 1748 1755 1749 1760 1768 1774 1761 1751 1749 1757 1782 1764 1756 1755 1775 1782 0
    0 0 0 0 0 1749 0 1744 1723 1707 0 0 0 0 1742 0 1704 1722 0 1703 1692 1729 0 0 0 1533 1476 0 0 1362 1433 1430 0 0 0 1448 1462 1458 0 0 0 0 0 0 1031 1025 1009 1016 1010 1003 999 999 1001 1002 1001 1000 1001 1001 1000 1001 1002 1002 1003 1003 1003 1003 1003 1003 1003 1004 1004 1004 1003 1002 1002 1002 1002 1003 1001 1001 1001 1003 1004 1005 1004 1005 1004 1003 1002 1004 1005 1005 1003 1003 1005 1006 1006 1005 1004 1004 1004 1005 1005 1005 1006 1006 1006 1014 1036 1069 1100 1115 1127 1136 1144 1152 1158 1163 1168 1172 1175 1181 1184 1187 1189 1194 1193 1190 1188 1191 1193 1194 1194 1196 1197 1199 1199 1198 1199 1200 1202 1201 1202 1201 1202 1200 1201 1201 1201 1202 1202 1201 1200 1200 1201 1200 1199 1199 1198 1198 1197 1198 1199 1199 1200 1201 1202 1200 1200 1200 1201 1198 1197 1197 1198 1198 1199 1199 1198 1197 1197 1198 1197 1197 1196 1195 1195 1196 1196 1197 1197 1196 1195 1196 1197 1197 1196 1196 1194 1194 1194 1195 1194 1194 1195 1195 1195 1195 1195 1195 1195 1195 1195 1196 1196 1195 1192 1194 1195 1196 1194 1194 1193 1193 1193 1192 1192 1192 1194 1194 1194 1193 1192 1192 1193 1194 1194 1195 1194 1194 1194 1195 1195 1195 1194 1194 1195 1195 1194 1195 1195 1195 1194 1194 1194 1195 1195 1195 1194 1193 1194 1195 1197 1196 1195 1194 1194 1194 1193 1195 1195 1194 1193 1193 1193 1193 1193 1193 1193 1195 1197 1198 1197 1196 1196 1195 1194 1195 1197 1197 1197 1195 1195 1195 1195 1196 1195 1196 1194 1196 1195 1196 1196 1197 1195 1195 1196 1196 1195 1195 1196 1196 1194 1194 1194 1195 1196 1196 1196 1196 1197 1196 1196 1195 1195 1195 1196 1196 1196 1195 1196 1196 1197 1196 1197 1198 1197 1196 1195 1195 1195 1195 1196 1196 1197 1196 1196 1195 1195 1196 1197 1198 1198 1198 1199 1199 1199 1197 1197 1197 1198 1199 1200 1198 1198 1197 1197 1197 1198 1198 1198 1198 1200 1199 1198 1198 1200 1201 1201 1200 1200 1199 1200 1201 1201 1201 1202 1202 1203 1203 1202 1202 1200 1201 1202 1203 1203 1203 1204 1204 1203 1202 1202 1204 1205 1206 1205 1205 1205 1205 1205 1205 1205 1205 1206 1207 1208 1207 1206 1207 1208 1210 1211 1211 1211 1210 1209 1208 1209 1210 1211 1210 1210 1209 1209 1210 1211 1211 1211 1210 1210 1211 1211 1211 1208 1208 1209 1208 1206 1205 1206 1209 1213 1214 1213 1212 1210 1207 1205 1203 1200 1197 1194 1190 1187 1184 1182 1177 1175 1172 1170 1167 1164 1159 1155 1151 1149 1147 1143 1138 1133 1128 1105 1067 1039 1029 1026 1022 1023 1026 1035 0 0 0 0 0 1745 1739 1748 1766 1765 1757 1751 1746 1747 1770 1772 1768 1745 1755 1761 0
    0 0 0 0 0 0 0 0 1717 1705 1748 1724 0 1741 1720 1718 1722 1742 1757 0 1680 1696 0 0 0 1449 1426 0 1407 1406 1443 1439 1390 0 0 1463 1483 0 0 1745 1714 0 0 0 1062 1022 1016 1019 1013 1005 1001 1001 1002 1001 1000 1001 1002 1003 1002 1001 1001 1001 1001 1002 1002 1002 1002 1002 1003 1004 1004 1004 1003 1002 1002 1002 1002 1002 1001 1002 1002 1004 1004 1004 1004 1005 1005 1003 1002 1003 1006 1005 1003 1003 1005 1006 1006 1005 1005 1005 1004 1004 1004 1005 1006 1006 1007 1015 1037 1070 1099 1115 1127 1137 1145 1152 1157 1163 1168 1173 1177 1181 1185 1187 1191 1194 1193 1192 1190 1191 1192 1193 1193 1195 1196 1198 1199 1198 1198 1198 1200 1200 1201 1201 1202 1200 1201 1200 1201 1201 1201 1200 1199 1200 1200 1200 1200 1200 1198 1198 1197 1199 1199 1199 1200 1201 1201 1200 1199 1200 1200 1198 1196 1196 1197 1198 1199 1198 1197 1195 1196 1197 1196 1195 1195 1195 1195 1196 1196 1196 1195 1194 1194 1195 1196 1197 1195 1194 1193 1193 1193 1193 1192 1193 1194 1195 1195 1195 1194 1195 1195 1195 1194 1194 1194 1195 1194 1196 1195 1195 1193 1193 1192 1193 1192 1192 1192 1193 1194 1192 1192 1192 1192 1192 1193 1194 1195 1195 1194 1194 1195 1196 1196 1195 1194 1194 1194 1194 1194 1193 1195 1195 1195 1195 1194 1196 1196 1197 1195 1194 1194 1195 1196 1195 1194 1194 1193 1193 1193 1195 1194 1194 1192 1193 1193 1193 1193 1194 1194 1196 1197 1197 1196 1196 1195 1195 1193 1195 1196 1195 1195 1195 1196 1195 1195 1197 1196 1196 1194 1196 1196 1197 1197 1198 1196 1195 1195 1195 1195 1195 1196 1195 1194 1193 1194 1196 1196 1196 1196 1196 1195 1195 1194 1195 1195 1195 1195 1195 1195 1195 1195 1196 1196 1196 1196 1196 1196 1195 1194 1195 1195 1195 1196 1196 1196 1196 1195 1196 1195 1197 1197 1198 1198 1199 1199 1199 1198 1197 1197 1197 1197 1198 1199 1199 1199 1198 1197 1197 1197 1197 1196 1197 1198 1198 1197 1198 1198 1200 1201 1201 1201 1200 1200 1202 1201 1201 1201 1202 1202 1201 1201 1201 1200 1201 1203 1202 1203 1202 1204 1203 1202 1202 1202 1203 1204 1206 1205 1206 1205 1206 1205 1205 1205 1204 1205 1205 1206 1207 1207 1207 1208 1208 1209 1210 1211 1210 1209 1208 1208 1208 1210 1210 1210 1209 1210 1210 1211 1210 1211 1211 1212 1211 1211 1210 1209 1208 1207 1206 1205 1204 1205 1209 1211 1213 1212 1211 1209 1206 1205 1202 1199 1197 1194 1192 1189 1186 1183 1178 1175 1172 1169 1166 1162 1159 1155 1152 1150 1147 1141 1136 1132 1128 1105 1067 1037 1027 1025 1023 1023 1024 0 0 0 0 0 1764 1760 1729 1730 1729 1743 1758 1781 1736 1740 1764 1781 1778 1755 1744 1735 0
    0 0 0 0 0 0 0 0 0 0 1708 0 0 0 1726 1720 1729 1745 1700 0 0 0 0 0 1454 1419 1422 1424 1423 1412 1424 1438 0 0 0 0 0 0 0 0 1736 0 0 0 1035 1018 1018 1019 1008 1003 1001 1001 1000 1000 999 1001 1002 1002 1002 1002 1001 1000 1001 1001 1002 1003 1003 1003 1003 1003 1003 1003 1002 1002 1002 1001 1001 1003 1003 1003 1002 1003 1002 1004 1003 1004 1004 1004 1003 1004 1005 1006 1004 1004 1005 1007 1006 1007 1006 1006 1005 1004 1004 1004 1006 1006 1008 1016 1038 1071 1101 1117 1128 1137 1144 1151 1158 1163 1168 1173 1178 1181 1185 1189 1193 1195 1192 1191 1188 1190 1190 1193 1193 1194 1194 1196 1197 1197 1197 1199 1200 1200 1201 1201 1201 1199 1199 1198 1199 1201 1202 1201 1198 1198 1199 1200 1201 1200 1199 1197 1196 1197 1198 1198 1199 1200 1200 1199 1199 1199 1200 1197 1197 1197 1198 1198 1199 1197 1196 1196 1195 1195 1196 1196 1197 1196 1198 1197 1198 1196 1195 1194 1194 1196 1197 1197 1196 1195 1195 1195 1195 1193 1193 1193 1194 1194 1194 1194 1194 1195 1195 1195 1194 1194 1194 1195 1194 1195 1195 1195 1194 1193 1193 1193 1193 1193 1194 1196 1195 1193 1191 1192 1192 1193 1193 1195 1195 1195 1194 1194 1194 1195 1194 1194 1193 1193 1193 1194 1193 1192 1193 1194 1195 1195 1196 1196 1197 1196 1195 1194 1193 1193 1194 1193 1194 1192 1192 1193 1194 1195 1194 1193 1192 1193 1194 1193 1193 1193 1194 1195 1196 1196 1194 1194 1195 1195 1194 1194 1194 1193 1193 1193 1196 1195 1195 1196 1196 1195 1195 1195 1196 1196 1197 1197 1196 1194 1194 1194 1195 1195 1196 1195 1195 1194 1196 1197 1197 1197 1197 1196 1196 1195 1195 1197 1197 1196 1195 1195 1195 1195 1195 1196 1197 1196 1196 1196 1196 1196 1195 1196 1196 1196 1197 1196 1196 1196 1196 1196 1195 1197 1198 1198 1198 1199 1199 1197 1198 1198 1199 1197 1198 1198 1198 1199 1199 1199 1198 1198 1198 1199 1198 1198 1198 1199 1199 1198 1198 1199 1201 1201 1201 1200 1201 1202 1202 1201 1200 1200 1201 1200 1201 1200 1200 1201 1203 1201 1202 1201 1202 1201 1202 1203 1204 1205 1205 1206 1205 1205 1205 1206 1205 1204 1205 1206 1206 1206 1207 1208 1207 1207 1207 1208 1209 1209 1212 1210 1210 1208 1208 1208 1210 1211 1209 1208 1209 1209 1210 1209 1210 1211 1211 1210 1210 1209 1210 1207 1207 1206 1205 1204 1205 1208 1212 1215 1214 1212 1210 1207 1205 1203 1199 1196 1194 1192 1190 1187 1183 1178 1175 1172 1169 1166 1161 1157 1153 1151 1149 1145 1141 1137 1133 1128 1106 1068 1038 1027 1026 1025 1025 1028 0 0 0 0 0 1774 1759 1783 1732 1738 1736 1752 1766 1747 1737 1766 1786 1783 1763 1744 1744 0
    0 1750 0 0 0 0 0 0 0 1725 1749 1727 0 1682 1711 0 1731 0 0 0 0 0 0 1424 1416 1425 1419 1424 1420 1419 1413 1377 0 0 0 0 0 1683 1725 1740 0 1679 0 0 1031 1029 1026 1014 1005 1003 1002 1002 1000 1000 999 1000 1002 1003 1002 1001 1000 1000 1001 1002 1003 1002 1003 1003 1003 1002 1002 1003 1003 1002 1001 1001 1001 1002 1003 1004 1004 1004 1002 1004 1003 1005 1005 1005 1004 1005 1005 1007 1005 1006 1005 1006 1005 1006 1006 1006 1007 1005 1005 1004 1005 1007 1010 1019 1038 1071 1101 1117 1129 1137 1144 1150 1157 1163 1168 1173 1179 1182 1186 1190 1194 1196 1193 1191 1187 1188 1189 1193 1193 1193 1194 1196 1198 1197 1197 1199 1200 1199 1201 1201 1200 1199 1199 1199 1200 1201 1202 1201 1200 1200 1199 1200 1201 1201 1200 1197 1197 1197 1199 1200 1202 1201 1200 1198 1198 1198 1198 1197 1197 1199 1199 1198 1197 1196 1196 1196 1196 1195 1195 1195 1195 1195 1197 1198 1197 1197 1195 1194 1193 1195 1195 1195 1195 1195 1196 1195 1194 1192 1192 1192 1194 1194 1193 1193 1193 1194 1195 1195 1194 1193 1193 1194 1194 1195 1194 1194 1192 1192 1192 1194 1193 1194 1195 1197 1196 1194 1192 1193 1193 1193 1192 1195 1195 1195 1193 1194 1193 1194 1192 1193 1192 1193 1194 1194 1193 1192 1193 1194 1194 1194 1195 1196 1195 1195 1194 1194 1193 1193 1193 1193 1193 1192 1192 1193 1194 1195 1195 1194 1192 1193 1194 1195 1193 1193 1192 1194 1196 1197 1196 1195 1195 1195 1195 1194 1194 1192 1192 1194 1196 1196 1195 1195 1196 1196 1195 1195 1195 1196 1196 1198 1196 1194 1192 1194 1195 1196 1195 1193 1193 1194 1196 1197 1196 1196 1196 1196 1195 1194 1194 1195 1195 1195 1194 1194 1195 1196 1196 1196 1196 1196 1195 1196 1195 1196 1195 1196 1196 1197 1197 1197 1197 1196 1196 1197 1196 1195 1196 1196 1197 1198 1198 1197 1198 1198 1198 1197 1197 1196 1195 1197 1197 1199 1198 1198 1197 1198 1197 1196 1196 1197 1198 1199 1199 1199 1200 1201 1200 1200 1200 1203 1202 1200 1199 1199 1200 1200 1200 1200 1200 1200 1201 1201 1201 1201 1201 1202 1202 1204 1204 1203 1204 1203 1204 1204 1206 1205 1203 1203 1204 1205 1205 1206 1207 1208 1206 1207 1207 1209 1210 1210 1210 1210 1209 1208 1208 1209 1210 1211 1210 1209 1210 1211 1210 1209 1210 1210 1210 1209 1210 1210 1209 1206 1205 1204 1204 1204 1205 1208 1213 1216 1215 1213 1209 1207 1206 1203 1200 1197 1195 1192 1189 1184 1181 1178 1176 1172 1169 1166 1162 1157 1153 1151 1150 1146 1142 1137 1135 1130 1107 1069 1037 1027 1024 1025 1026 1029 0 0 0 0 1749 0 1747 1759 1763 1742 1743 1773 1766 1738 1727 1761 1777 1770 1759 1754 1751 0
    0 0 0 0 0 0 0 0 1640 0 1758 0 1746 1701 1676 0 0 0 0 0 0 1379 1412 1418 1421 1413 1423 1424 1418 1405 1376 0 0 0 0 0 0 1680 1684 1700 1690 1655 0 0 1019 1025 1017 1009 1002 1001 1000 1001 1000 1000 999 999 1001 1001 1001 1001 1001 1001 1002 1002 1003 1002 1004 1004 1003 1002 1002 1003 1003 1002 1000 1000 1001 1003 1004 1003 1003 1004 1004 1007 1005 1006 1004 1006 1004 1005 1006 1008 1005 1006 1006 1008 1007 1007 1007 1007 1007 1006 1006 1005 1005 1007 1010 1018 1037 1070 1101 1118 1131 1139 1145 1151 1157 1163 1169 1174 1179 1181 1185 1189 1194 1196 1194 1191 1188 1188 1190 1192 1193 1192 1194 1195 1197 1196 1198 1199 1201 1200 1202 1201 1200 1199 1200 1200 1200 1201 1202 1201 1200 1200 1199 1199 1199 1200 1200 1199 1199 1199 1199 1199 1200 1199 1200 1198 1199 1198 1199 1197 1198 1200 1199 1198 1197 1196 1196 1197 1197 1197 1196 1197 1197 1196 1198 1198 1198 1197 1195 1194 1194 1196 1197 1197 1197 1197 1198 1196 1195 1193 1193 1193 1195 1194 1194 1194 1194 1195 1195 1194 1194 1194 1194 1194 1193 1193 1193 1193 1192 1192 1193 1194 1194 1195 1195 1196 1196 1194 1193 1193 1193 1193 1193 1194 1193 1194 1192 1193 1193 1193 1192 1191 1191 1193 1195 1195 1194 1193 1194 1194 1194 1193 1194 1194 1193 1194 1194 1194 1194 1193 1193 1193 1193 1192 1194 1193 1194 1194 1195 1194 1193 1192 1194 1193 1193 1191 1191 1193 1194 1196 1196 1195 1194 1194 1195 1194 1193 1192 1193 1194 1196 1196 1195 1195 1196 1196 1196 1195 1196 1196 1196 1197 1195 1194 1192 1193 1195 1195 1195 1193 1194 1195 1195 1195 1195 1196 1196 1196 1196 1196 1196 1196 1196 1196 1197 1196 1197 1196 1197 1197 1197 1196 1196 1196 1196 1195 1194 1196 1197 1199 1199 1198 1197 1196 1196 1197 1197 1196 1195 1195 1196 1197 1197 1197 1198 1196 1197 1197 1198 1197 1197 1197 1198 1199 1198 1197 1198 1199 1200 1199 1198 1199 1200 1201 1199 1199 1199 1200 1201 1200 1200 1201 1202 1200 1200 1200 1201 1201 1201 1201 1200 1200 1200 1201 1202 1203 1202 1202 1204 1205 1206 1204 1205 1203 1204 1203 1206 1205 1204 1203 1204 1204 1205 1206 1208 1208 1207 1208 1208 1210 1211 1211 1210 1209 1209 1209 1209 1211 1212 1211 1211 1210 1210 1210 1210 1210 1210 1209 1209 1209 1210 1210 1209 1206 1206 1206 1207 1205 1206 1209 1213 1216 1215 1214 1209 1208 1206 1204 1200 1196 1193 1190 1187 1183 1180 1179 1176 1171 1168 1166 1163 1157 1152 1149 1148 1145 1142 1138 1135 1129 1107 1069 1038 1028 1026 1026 1027 1027 0 0 0 0 1725 1756 1763 1765 1757 1745 1766 1772 1765 1741 1743 1752 1778 1778 1772 1762 1765 0
    0 0 0 0 0 0 0 0 1644 0 1780 1775 1762 0 0 0 0 0 1381 1366 1380 1393 1408 1419 1421 1422 1415 1418 1420 0 0 0 0 1700 0 0 0 1684 1688 1699 1726 1793 0 983 1017 1006 1011 1014 1007 1003 1000 1001 1000 1000 999 1000 1000 1000 1000 1000 1000 1002 1003 1003 1003 1001 1003 1003 1004 1003 1003 1005 1004 1003 1000 1001 1002 1003 1003 1003 1003 1004 1006 1007 1006 1005 1004 1004 1004 1005 1006 1008 1006 1006 1006 1007 1007 1006 1007 1008 1007 1005 1004 1004 1006 1008 1009 1018 1037 1070 1100 1117 1131 1140 1146 1151 1158 1164 1170 1175 1180 1182 1184 1188 1192 1196 1194 1192 1189 1189 1190 1191 1192 1193 1194 1195 1197 1197 1198 1199 1200 1201 1201 1200 1200 1198 1200 1199 1199 1199 1200 1200 1200 1200 1199 1198 1199 1200 1202 1201 1200 1199 1199 1200 1200 1199 1198 1197 1199 1199 1198 1197 1197 1199 1199 1199 1196 1195 1195 1197 1196 1197 1196 1196 1195 1195 1196 1197 1196 1195 1195 1195 1195 1195 1195 1195 1196 1196 1197 1196 1193 1192 1193 1194 1194 1194 1194 1193 1193 1194 1194 1193 1193 1193 1193 1193 1193 1194 1194 1193 1192 1193 1194 1195 1195 1195 1194 1194 1195 1194 1193 1193 1192 1192 1192 1193 1193 1193 1192 1193 1194 1193 1192 1191 1191 1192 1194 1195 1194 1193 1195 1195 1195 1194 1192 1191 1192 1193 1194 1195 1194 1193 1193 1193 1193 1194 1194 1193 1193 1194 1196 1195 1194 1192 1193 1193 1193 1192 1192 1194 1194 1196 1195 1195 1193 1194 1194 1194 1193 1194 1193 1194 1194 1194 1194 1196 1197 1196 1194 1194 1194 1195 1195 1195 1195 1194 1192 1193 1194 1196 1195 1194 1193 1195 1194 1195 1194 1195 1194 1195 1195 1196 1195 1195 1194 1195 1196 1196 1195 1196 1197 1196 1196 1195 1196 1196 1197 1195 1195 1195 1197 1199 1199 1199 1197 1196 1197 1198 1198 1195 1194 1195 1197 1198 1198 1198 1198 1196 1196 1196 1197 1198 1198 1198 1199 1198 1198 1198 1198 1199 1198 1197 1195 1197 1198 1201 1200 1199 1199 1200 1200 1200 1200 1201 1202 1200 1201 1201 1202 1202 1200 1201 1200 1201 1201 1202 1203 1203 1201 1202 1204 1205 1205 1205 1205 1204 1204 1204 1205 1205 1205 1204 1204 1204 1204 1205 1206 1206 1207 1209 1209 1210 1210 1210 1208 1208 1209 1210 1211 1211 1212 1211 1212 1211 1211 1211 1210 1210 1210 1210 1210 1209 1211 1210 1209 1207 1206 1206 1206 1206 1206 1209 1211 1215 1213 1213 1210 1208 1205 1203 1201 1197 1193 1190 1187 1183 1180 1178 1176 1171 1168 1166 1163 1159 1154 1151 1149 1146 1143 1138 1135 1129 1108 1069 1038 1028 1025 1025 1024 1026 0 0 0 0 1761 0 1753 1751 1735 1745 1750 1747 1753 1755 1776 1765 1772 1793 1763 1750 1787 0
    0 0 0 0 0 1764 1767 1711 0 1739 0 1711 1744 0 0 0 0 1361 1393 1400 1408 1414 1414 1420 1421 1425 1424 1423 0 0 0 0 1705 0 0 0 0 1732 1721 1733 1752 1786 0 0 991 992 1008 1018 1009 1003 999 1000 999 1001 1000 1001 1000 1000 1001 1001 1002 1002 1004 1003 1003 1002 1003 1004 1004 1004 1003 1005 1004 1004 1002 1002 1002 1002 1003 1003 1003 1005 1007 1008 1006 1003 1003 1003 1003 1004 1006 1006 1005 1004 1005 1006 1006 1006 1007 1007 1006 1004 1004 1004 1006 1007 1008 1017 1037 1071 1099 1116 1128 1138 1144 1151 1158 1164 1171 1176 1180 1184 1186 1189 1193 1196 1195 1191 1189 1189 1191 1191 1192 1193 1196 1198 1198 1198 1198 1198 1199 1200 1201 1200 1200 1199 1200 1199 1200 1200 1201 1200 1200 1199 1199 1198 1200 1201 1201 1200 1200 1198 1198 1198 1198 1197 1197 1199 1200 1199 1198 1196 1195 1197 1198 1199 1196 1195 1195 1196 1196 1197 1197 1197 1196 1196 1197 1195 1195 1194 1195 1196 1197 1195 1196 1197 1197 1195 1196 1196 1195 1193 1194 1194 1195 1194 1194 1193 1193 1193 1192 1193 1193 1193 1192 1192 1193 1194 1194 1194 1193 1193 1193 1195 1195 1195 1193 1193 1194 1194 1193 1193 1193 1193 1192 1193 1193 1193 1193 1193 1193 1192 1193 1192 1192 1192 1193 1193 1194 1193 1194 1194 1196 1194 1194 1192 1192 1192 1194 1194 1194 1194 1195 1194 1193 1193 1194 1193 1193 1194 1195 1194 1194 1192 1195 1194 1195 1195 1195 1195 1193 1194 1194 1194 1192 1193 1193 1193 1193 1194 1194 1193 1193 1193 1194 1195 1197 1195 1193 1192 1193 1194 1194 1194 1194 1194 1193 1194 1195 1196 1195 1195 1194 1194 1195 1194 1194 1194 1194 1194 1195 1197 1197 1196 1194 1195 1196 1196 1196 1196 1197 1197 1197 1196 1197 1196 1197 1195 1196 1195 1197 1198 1199 1198 1196 1195 1196 1198 1197 1196 1195 1196 1198 1197 1198 1197 1198 1196 1195 1195 1198 1199 1200 1199 1199 1198 1198 1198 1198 1199 1199 1198 1197 1198 1199 1200 1199 1200 1199 1199 1199 1199 1200 1200 1201 1200 1202 1203 1204 1203 1201 1201 1201 1202 1201 1204 1203 1204 1202 1203 1205 1206 1207 1205 1205 1205 1205 1204 1206 1206 1206 1205 1204 1205 1205 1206 1205 1205 1207 1209 1209 1209 1208 1208 1207 1207 1208 1210 1210 1210 1211 1211 1210 1210 1210 1211 1210 1209 1209 1210 1211 1211 1211 1209 1208 1207 1206 1206 1205 1205 1205 1208 1211 1214 1213 1212 1210 1209 1205 1203 1200 1196 1191 1188 1187 1184 1180 1178 1176 1171 1167 1165 1163 1160 1155 1151 1147 1145 1143 1139 1135 1129 1108 1071 1041 1029 1025 1023 1023 1027 0 0 0 0 1772 1745 1734 1730 1754 1730 1733 1736 1749 1775 1777 1765 1766 1778 1778 1743 0 0
    0 1760 0 1733 1777 0 1808 1769 1734 0 1712 0 0 0 0 0 1389 1394 1394 1404 1416 1422 1419 1415 1413 1423 0 0 0 0 0 0 0 0 0 0 0 1708 1744 1743 1723 0 0 0 1009 1007 1009 1019 1008 1004 1001 1001 1000 1002 1001 1002 1000 1000 1001 1001 1002 1002 1004 1003 1003 1002 1003 1004 1004 1003 1003 1004 1004 1004 1003 1002 1001 1001 1003 1003 1004 1004 1005 1005 1005 1003 1003 1002 1003 1003 1005 1005 1005 1005 1005 1005 1005 1005 1005 1006 1006 1004 1003 1003 1004 1006 1007 1018 1039 1072 1100 1115 1128 1137 1145 1151 1159 1164 1170 1174 1179 1184 1187 1192 1194 1197 1193 1190 1186 1187 1190 1192 1191 1193 1195 1198 1197 1197 1196 1197 1198 1199 1199 1198 1200 1198 1199 1198 1200 1200 1201 1200 1200 1199 1199 1198 1199 1201 1201 1200 1198 1197 1197 1198 1199 1198 1197 1199 1200 1200 1198 1196 1196 1197 1197 1198 1196 1195 1195 1196 1196 1197 1196 1196 1195 1195 1195 1194 1194 1194 1195 1196 1195 1195 1196 1196 1196 1194 1195 1195 1194 1194 1194 1195 1195 1193 1192 1192 1191 1191 1191 1192 1193 1194 1193 1192 1194 1195 1194 1194 1193 1193 1194 1194 1195 1194 1194 1193 1192 1193 1192 1192 1192 1193 1192 1192 1192 1193 1193 1194 1193 1193 1193 1193 1192 1192 1192 1193 1193 1193 1194 1194 1195 1194 1194 1193 1192 1192 1192 1193 1194 1195 1195 1194 1193 1193 1193 1193 1193 1194 1194 1193 1192 1193 1195 1196 1196 1196 1197 1196 1194 1194 1194 1194 1193 1192 1192 1193 1194 1195 1194 1194 1193 1192 1193 1195 1196 1194 1193 1193 1192 1193 1193 1195 1194 1194 1193 1194 1194 1195 1195 1195 1193 1194 1195 1195 1194 1194 1194 1193 1194 1195 1196 1194 1194 1194 1194 1195 1195 1197 1197 1197 1196 1196 1194 1195 1196 1197 1196 1195 1196 1197 1198 1197 1195 1195 1196 1198 1197 1195 1195 1196 1198 1197 1197 1197 1197 1197 1195 1196 1197 1199 1198 1198 1198 1198 1198 1199 1199 1199 1197 1196 1197 1197 1198 1198 1199 1199 1198 1198 1197 1197 1199 1200 1200 1200 1201 1202 1203 1203 1201 1201 1200 1201 1202 1204 1203 1203 1202 1203 1204 1205 1205 1203 1203 1204 1204 1205 1205 1206 1206 1205 1205 1205 1206 1205 1204 1205 1207 1209 1208 1208 1207 1207 1206 1207 1208 1210 1210 1209 1208 1209 1209 1210 1211 1211 1209 1209 1209 1211 1212 1211 1211 1209 1208 1207 1205 1206 1204 1205 1205 1208 1212 1214 1212 1211 1211 1209 1205 1202 1200 1196 1192 1188 1187 1184 1180 1177 1175 1171 1167 1166 1164 1162 1156 1152 1148 1147 1144 1141 1137 1130 1107 1071 1040 1028 1023 1022 1022 1024 0 0 0 0 1753 1739 1731 1753 1742 0 1750 1750 1748 1768 1778 1757 1750 1746 1743 1720 1717 0
    0 0 0 1792 1760 0 0 0 0 0 0 0 0 0 1364 1389 1395 1391 1392 1402 1418 1433 1421 1385 0 0 0 0 0 0 0 1650 0 0 0 0 0 1722 1703 1733 1702 0 0 0 1016 1011 1007 1008 1003 1003 1001 1003 1002 1003 1002 1003 1002 1002 1002 1003 1002 1002 1002 1003 1002 1003 1004 1004 1004 1004 1003 1003 1003 1003 1003 1003 1002 1002 1003 1004 1004 1004 1005 1004 1004 1002 1003 1003 1003 1003 1004 1006 1005 1005 1005 1006 1005 1004 1005 1006 1007 1005 1005 1005 1005 1007 1008 1019 1040 1073 1102 1116 1128 1136 1145 1152 1159 1163 1169 1174 1179 1184 1188 1192 1194 1196 1194 1189 1186 1188 1192 1193 1192 1193 1195 1198 1198 1198 1198 1198 1199 1199 1200 1200 1201 1199 1199 1198 1201 1202 1202 1200 1200 1199 1199 1199 1199 1201 1200 1199 1197 1196 1197 1197 1198 1198 1198 1198 1199 1198 1198 1197 1197 1197 1197 1198 1195 1195 1195 1197 1198 1198 1197 1196 1195 1194 1195 1194 1194 1194 1195 1195 1194 1195 1196 1195 1196 1195 1195 1195 1196 1195 1195 1194 1194 1193 1193 1194 1192 1192 1191 1193 1194 1195 1194 1194 1194 1194 1193 1194 1194 1194 1193 1193 1194 1193 1194 1193 1192 1193 1192 1192 1192 1194 1193 1193 1192 1193 1194 1194 1193 1192 1193 1194 1193 1193 1193 1192 1193 1193 1194 1193 1194 1195 1195 1194 1193 1192 1193 1192 1193 1195 1195 1194 1193 1194 1194 1194 1193 1194 1193 1193 1193 1194 1196 1196 1196 1195 1195 1194 1194 1192 1193 1192 1192 1192 1193 1194 1196 1196 1196 1195 1195 1194 1193 1193 1194 1194 1194 1193 1194 1194 1195 1195 1195 1193 1193 1193 1193 1195 1196 1196 1194 1195 1195 1194 1194 1193 1194 1193 1195 1195 1196 1194 1194 1193 1194 1194 1196 1195 1196 1195 1196 1196 1195 1195 1195 1196 1196 1195 1195 1196 1196 1196 1195 1195 1196 1197 1196 1195 1195 1196 1197 1196 1196 1196 1198 1197 1196 1196 1197 1198 1199 1199 1198 1198 1198 1199 1198 1198 1198 1198 1200 1199 1199 1199 1198 1199 1198 1197 1198 1197 1199 1199 1200 1200 1200 1201 1202 1202 1202 1201 1200 1200 1201 1203 1203 1203 1203 1203 1204 1204 1204 1202 1202 1203 1204 1205 1205 1205 1206 1205 1206 1205 1207 1206 1206 1205 1206 1207 1206 1207 1208 1208 1207 1208 1209 1209 1208 1207 1208 1208 1208 1209 1210 1210 1208 1209 1210 1212 1212 1211 1210 1209 1208 1207 1206 1207 1206 1205 1204 1209 1214 1216 1213 1212 1211 1209 1206 1203 1200 1195 1192 1188 1187 1185 1182 1178 1174 1170 1167 1166 1165 1163 1157 1153 1148 1146 1144 1142 1138 1131 1107 1071 1041 1029 1024 1022 1023 1025 1016 0 0 0 1745 1746 1759 1768 1766 1769 1779 1755 1768 1782 1775 1746 1739 1738 1745 1746 1734 0
    0 1696 0 0 0 0 0 0 0 0 0 0 0 1396 1372 1385 1382 1389 1388 1399 1409 1442 0 0 0 0 1712 0 0 0 1664 0 0 0 0 0 0 0 1709 1715 0 0 0 1037 1027 1014 1001 1004 1001 1002 1001 1003 1003 1004 1003 1003 1003 1003 1002 1003 1002 1002 1001 1002 1003 1004 1005 1005 1005 1004 1003 1002 1002 1002 1003 1003 1002 1002 1003 1003 1003 1003 1004 1003 1003 1002 1003 1005 1006 1006 1005 1006 1005 1005 1006 1005 1005 1005 1006 1006 1006 1005 1005 1005 1005 1007 1010 1020 1042 1074 1102 1117 1129 1137 1145 1153 1159 1163 1168 1173 1179 1185 1188 1191 1192 1195 1193 1188 1186 1187 1192 1193 1194 1193 1194 1195 1197 1198 1198 1198 1198 1198 1199 1199 1200 1200 1199 1199 1200 1201 1201 1200 1200 1199 1198 1198 1198 1200 1200 1199 1196 1196 1198 1199 1200 1199 1198 1198 1197 1197 1197 1196 1196 1196 1196 1196 1195 1196 1196 1196 1197 1196 1197 1196 1196 1194 1194 1194 1194 1194 1193 1194 1194 1195 1194 1194 1194 1195 1194 1194 1195 1196 1195 1194 1193 1193 1193 1194 1193 1192 1192 1194 1195 1195 1194 1193 1193 1193 1193 1194 1195 1194 1194 1194 1194 1193 1194 1193 1192 1193 1193 1193 1192 1193 1193 1193 1191 1192 1193 1194 1194 1193 1192 1192 1193 1193 1194 1193 1194 1194 1194 1193 1194 1196 1195 1194 1194 1194 1194 1194 1193 1195 1193 1193 1193 1193 1195 1195 1195 1195 1194 1194 1193 1193 1194 1194 1195 1193 1193 1192 1194 1192 1192 1192 1193 1194 1194 1194 1194 1195 1194 1195 1195 1195 1193 1193 1193 1194 1194 1194 1194 1194 1194 1195 1194 1193 1192 1193 1192 1194 1195 1196 1195 1196 1195 1195 1194 1194 1194 1193 1194 1193 1194 1194 1193 1193 1193 1194 1195 1193 1194 1193 1195 1194 1194 1195 1195 1196 1195 1196 1195 1196 1196 1196 1195 1195 1197 1196 1196 1195 1195 1196 1196 1196 1195 1195 1197 1197 1198 1198 1197 1196 1197 1199 1198 1199 1198 1198 1197 1197 1197 1198 1199 1198 1198 1198 1198 1197 1196 1197 1199 1198 1199 1198 1199 1199 1198 1199 1201 1202 1201 1201 1201 1200 1201 1201 1202 1202 1202 1203 1204 1204 1204 1203 1202 1203 1204 1205 1205 1205 1206 1204 1205 1205 1207 1205 1205 1205 1206 1206 1205 1205 1207 1208 1207 1207 1208 1208 1207 1206 1208 1208 1209 1208 1209 1209 1208 1209 1210 1211 1211 1212 1211 1210 1209 1207 1206 1206 1206 1205 1205 1210 1214 1217 1215 1214 1211 1209 1207 1204 1200 1196 1193 1191 1188 1186 1182 1179 1174 1171 1168 1167 1166 1162 1158 1153 1149 1146 1144 1142 1138 1130 1107 1071 1041 1031 1025 1024 1023 1027 1024 0 0 1747 1736 1748 1763 1776 1762 1763 1761 1754 0 1770 1767 1745 1737 1734 1742 1752 1752 0
    0 0 0 0 0 0 0 0 0 0 0 1347 1398 1383 1382 1388 1389 1384 1403 1419 1415 0 0 0 0 1739 1758 1716 0 0 0 0 0 0 0 0 0 0 0 0 0 0 0 1053 1025 1019 1015 1007 1003 1001 1001 1002 1002 1002 1002 1004 1005 1005 1003 1003 1002 1003 1002 1002 1003 1004 1005 1004 1005 1005 1004 1002 1001 1003 1003 1005 1004 1003 1003 1004 1005 1005 1004 1004 1002 1002 1002 1005 1007 1008 1006 1005 1005 1006 1006 1006 1006 1006 1006 1005 1005 1005 1005 1005 1006 1007 1010 1021 1041 1074 1102 1117 1129 1138 1145 1152 1158 1163 1169 1176 1182 1187 1189 1189 1191 1194 1194 1189 1189 1189 1194 1193 1193 1193 1196 1197 1198 1199 1200 1200 1201 1200 1201 1202 1202 1202 1201 1201 1200 1201 1200 1199 1199 1199 1198 1199 1198 1199 1198 1198 1197 1197 1199 1199 1200 1199 1200 1198 1196 1196 1197 1197 1196 1195 1196 1196 1196 1196 1196 1196 1196 1195 1197 1196 1197 1194 1195 1195 1196 1195 1194 1194 1194 1195 1194 1194 1194 1195 1194 1193 1195 1195 1195 1194 1194 1194 1195 1195 1193 1193 1193 1195 1194 1193 1193 1193 1193 1191 1192 1193 1194 1194 1193 1195 1194 1194 1193 1194 1194 1194 1194 1193 1193 1193 1193 1193 1193 1193 1193 1192 1193 1191 1192 1192 1193 1194 1194 1194 1195 1195 1195 1194 1195 1196 1195 1194 1193 1193 1193 1193 1193 1193 1193 1193 1193 1193 1195 1194 1195 1194 1194 1193 1193 1193 1194 1194 1195 1194 1193 1192 1192 1191 1192 1193 1195 1196 1196 1193 1193 1193 1194 1195 1195 1194 1193 1192 1192 1193 1194 1194 1194 1194 1194 1194 1193 1192 1192 1193 1193 1194 1195 1197 1197 1196 1196 1196 1197 1195 1195 1194 1195 1195 1196 1195 1194 1193 1194 1196 1196 1193 1193 1193 1196 1195 1195 1196 1196 1195 1194 1195 1194 1195 1196 1197 1196 1195 1196 1197 1197 1194 1195 1195 1197 1196 1195 1196 1196 1197 1199 1198 1197 1196 1198 1199 1198 1198 1198 1198 1196 1195 1196 1197 1198 1197 1198 1199 1198 1197 1197 1197 1199 1199 1200 1199 1200 1200 1200 1200 1200 1201 1201 1202 1201 1201 1201 1201 1202 1202 1202 1203 1203 1204 1205 1204 1204 1202 1204 1203 1204 1204 1205 1204 1205 1205 1207 1206 1206 1205 1206 1205 1205 1205 1207 1207 1207 1207 1207 1206 1206 1206 1209 1208 1209 1207 1208 1207 1208 1209 1210 1211 1212 1212 1212 1210 1209 1207 1207 1205 1205 1205 1205 1209 1213 1217 1216 1214 1211 1209 1206 1203 1199 1196 1192 1191 1188 1185 1181 1178 1175 1171 1168 1166 1164 1161 1157 1153 1149 1144 1142 1139 1137 1130 1109 1072 1043 1031 1025 1023 1022 1027 0 0 0 1723 1734 1737 1760 1766 1748 1746 1754 1749 1750 1759 1740 1737 1736 1730 1737 0 1755 0
    0 0 0 0 0 0 0 0 0 1301 1344 1379 1382 1394 1398 1396 1397 1405 1412 0 0 1699 1672 1683 1731 0 1739 1755 0 0 0 0 0 0 0 0 0 0 0 0 0 0 0 0 1025 1027 1029 1018 1006 1001 1001 1001 1001 1001 1001 1003 1004 1004 1003 1002 1002 1003 1003 1002 1003 1003 1004 1003 1004 1005 1003 1001 1001 1003 1004 1004 1004 1003 1003 1004 1006 1005 1004 1004 1003 1003 1003 1004 1007 1008 1007 1004 1004 1005 1005 1004 1004 1005 1005 1004 1004 1004 1004 1003 1003 1006 1010 1020 1041 1073 1101 1117 1128 1139 1145 1152 1157 1164 1170 1176 1181 1186 1189 1189 1191 1193 1193 1190 1189 1190 1193 1192 1193 1193 1194 1196 1197 1198 1200 1201 1201 1201 1202 1201 1201 1202 1201 1200 1198 1199 1199 1199 1198 1199 1198 1200 1199 1199 1198 1199 1199 1198 1199 1200 1201 1201 1200 1199 1196 1196 1196 1197 1197 1196 1195 1195 1195 1196 1196 1196 1195 1194 1195 1195 1196 1195 1195 1194 1196 1194 1194 1193 1194 1195 1195 1195 1194 1194 1194 1193 1193 1193 1194 1194 1195 1193 1194 1193 1193 1192 1192 1194 1194 1193 1192 1192 1192 1191 1191 1191 1193 1193 1193 1194 1193 1194 1193 1193 1194 1193 1193 1192 1193 1192 1192 1192 1193 1193 1193 1192 1192 1192 1193 1193 1193 1193 1194 1194 1194 1193 1193 1194 1195 1195 1195 1196 1194 1193 1192 1193 1192 1192 1192 1191 1191 1191 1194 1193 1194 1193 1194 1193 1194 1193 1193 1194 1195 1195 1195 1194 1194 1193 1195 1196 1197 1196 1195 1194 1192 1192 1193 1194 1193 1193 1195 1195 1194 1194 1193 1194 1193 1194 1193 1193 1191 1192 1192 1193 1193 1194 1194 1196 1196 1196 1196 1196 1196 1195 1194 1194 1194 1195 1196 1195 1194 1194 1195 1195 1195 1194 1194 1194 1194 1194 1194 1196 1195 1195 1193 1194 1195 1196 1196 1196 1195 1196 1197 1198 1197 1195 1195 1195 1196 1196 1196 1197 1197 1198 1198 1198 1196 1197 1196 1197 1197 1198 1198 1198 1196 1195 1195 1197 1198 1197 1197 1199 1199 1198 1197 1198 1198 1199 1199 1200 1200 1200 1200 1200 1200 1200 1200 1201 1202 1201 1201 1202 1202 1202 1202 1202 1202 1203 1204 1204 1203 1202 1203 1203 1204 1204 1204 1204 1204 1205 1206 1206 1205 1205 1206 1205 1205 1205 1207 1207 1207 1206 1206 1205 1207 1206 1208 1208 1209 1208 1208 1208 1209 1208 1208 1210 1211 1211 1211 1210 1209 1208 1207 1205 1204 1204 1205 1208 1212 1216 1215 1214 1210 1208 1204 1203 1198 1196 1192 1191 1188 1184 1180 1178 1175 1173 1170 1166 1163 1159 1157 1153 1149 1145 1141 1138 1135 1130 1109 1072 1042 1029 1025 1023 1023 1028 0 0 0 0 1720 1746 1748 1751 1735 1744 1763 1756 1741 1754 1751 1734 1742 1759 1760 1762 1738 0
    0 0 0 0 0 0 0 0 1305 1324 1377 1379 1385 1410 1408 1402 0 0 0 0 0 0 1706 1733 1712 1731 1741 1748 1744 0 0 0 1741 1728 0 0 0 1011 0 0 0 0 0 0 1010 1027 1030 1021 1007 1001 1000 1000 999 999 1000 1002 1002 1002 1002 1001 1001 1003 1003 1002 1001 1001 1002 1003 1005 1006 1003 1003 1002 1003 1004 1005 1004 1004 1004 1006 1006 1006 1004 1003 1002 1002 1004 1005 1007 1006 1006 1004 1005 1005 1005 1006 1005 1004 1003 1003 1004 1005 1005 1004 1004 1005 1008 1018 1039 1072 1102 1117 1128 1139 1148 1155 1159 1165 1172 1177 1182 1186 1189 1190 1192 1195 1195 1193 1191 1192 1193 1193 1193 1194 1195 1196 1196 1198 1199 1200 1201 1202 1203 1202 1201 1200 1200 1200 1200 1199 1198 1198 1198 1198 1198 1200 1200 1199 1198 1199 1200 1199 1199 1200 1200 1200 1200 1199 1197 1196 1197 1199 1199 1197 1196 1196 1195 1196 1197 1198 1196 1195 1195 1194 1194 1195 1195 1195 1195 1195 1195 1194 1195 1195 1196 1196 1196 1195 1195 1194 1194 1194 1195 1195 1194 1193 1193 1193 1193 1192 1192 1194 1193 1192 1192 1193 1193 1191 1190 1191 1192 1193 1193 1193 1193 1194 1194 1194 1194 1192 1192 1191 1191 1191 1191 1191 1193 1192 1193 1192 1193 1192 1193 1193 1193 1192 1193 1193 1193 1192 1193 1194 1193 1194 1194 1195 1194 1193 1193 1193 1193 1192 1192 1191 1192 1191 1192 1191 1193 1192 1193 1192 1192 1193 1193 1194 1195 1196 1195 1193 1193 1194 1196 1197 1196 1195 1194 1194 1192 1192 1193 1193 1193 1192 1194 1194 1194 1193 1193 1194 1194 1195 1194 1193 1193 1193 1192 1193 1194 1195 1195 1196 1196 1196 1196 1196 1196 1195 1194 1194 1195 1196 1197 1196 1196 1196 1196 1196 1195 1195 1196 1194 1194 1193 1195 1196 1196 1195 1195 1195 1194 1194 1195 1194 1195 1195 1198 1197 1196 1194 1194 1195 1197 1196 1197 1196 1197 1198 1197 1196 1195 1196 1197 1195 1195 1195 1197 1197 1197 1195 1196 1197 1198 1198 1198 1199 1200 1199 1199 1198 1198 1198 1199 1200 1201 1201 1201 1201 1201 1200 1200 1200 1201 1201 1202 1202 1203 1203 1202 1202 1203 1203 1204 1203 1204 1203 1204 1203 1203 1204 1204 1205 1204 1204 1205 1206 1207 1207 1208 1207 1207 1207 1207 1208 1207 1206 1206 1206 1208 1207 1208 1208 1210 1209 1210 1209 1210 1208 1209 1210 1210 1210 1210 1210 1210 1209 1208 1206 1205 1205 1205 1207 1211 1215 1215 1213 1210 1207 1204 1202 1198 1196 1192 1189 1186 1184 1181 1178 1175 1173 1171 1168 1164 1159 1156 1153 1149 1144 1139 1136 1135 1131 1109 1071 1041 1029 1025 1024 1024 1028 0 0 0 0 1745 1746 1745 1742 1746 1750 1763 1760 1735 1759 1745 1754 1751 1767 1783 1740 1748 0
    0 0 0 0 0 0 0 0 1348 1366 1383 1381 1384 1389 1405 0 0 0 1638 0 0 0 1704 1716 1763 1736 1745 1762 1732 0 0 1772 1756 1723 0 0 0 1008 0 0 0 0 0 1021 1029 1019 1023 1019 1006 1001 1001 1000 1000 999 1000 1000 1000 1000 1001 1001 1001 1002 1003 1002 1001 1000 1001 1003 1004 1004 1002 1002 1002 1003 1004 1004 1004 1005 1004 1005 1005 1005 1004 1003 1002 1003 1004 1005 1006 1004 1005 1004 1005 1005 1005 1005 1003 1004 1003 1004 1005 1006 1005 1003 1004 1005 1008 1017 1039 1072 1100 1115 1127 1138 1147 1155 1161 1166 1171 1175 1180 1185 1188 1190 1193 1195 1195 1192 1191 1192 1193 1193 1193 1195 1194 1195 1195 1198 1198 1198 1198 1200 1202 1201 1200 1198 1199 1199 1199 1198 1199 1199 1198 1198 1198 1201 1201 1201 1200 1200 1199 1199 1199 1201 1199 1199 1198 1198 1197 1196 1196 1197 1199 1197 1196 1195 1195 1195 1196 1197 1196 1196 1195 1194 1193 1195 1196 1194 1193 1193 1193 1193 1195 1195 1195 1196 1196 1195 1194 1194 1194 1194 1194 1193 1192 1192 1193 1194 1193 1193 1192 1193 1192 1192 1192 1193 1193 1192 1192 1192 1192 1192 1191 1191 1192 1194 1193 1193 1193 1193 1193 1193 1192 1191 1190 1191 1192 1192 1192 1192 1194 1193 1194 1195 1194 1192 1192 1192 1192 1191 1193 1194 1194 1195 1195 1196 1195 1195 1194 1194 1193 1193 1191 1192 1192 1191 1190 1191 1192 1193 1193 1193 1193 1193 1194 1195 1195 1195 1194 1194 1194 1195 1196 1195 1194 1195 1194 1195 1193 1193 1193 1194 1193 1193 1193 1194 1194 1194 1194 1195 1195 1196 1194 1194 1194 1195 1193 1193 1193 1195 1194 1195 1195 1196 1195 1195 1194 1193 1193 1193 1193 1194 1195 1195 1194 1194 1194 1193 1193 1194 1195 1194 1193 1192 1193 1194 1195 1196 1195 1195 1194 1194 1195 1194 1195 1194 1197 1196 1195 1194 1193 1195 1196 1198 1197 1196 1197 1198 1198 1196 1195 1195 1195 1195 1195 1195 1196 1197 1196 1195 1196 1199 1199 1198 1197 1198 1198 1198 1198 1198 1197 1198 1198 1200 1201 1201 1201 1200 1200 1200 1201 1201 1201 1201 1201 1201 1201 1202 1203 1203 1202 1202 1202 1202 1203 1204 1204 1204 1203 1205 1205 1204 1203 1203 1204 1206 1207 1209 1207 1207 1206 1208 1208 1208 1206 1206 1207 1208 1208 1207 1208 1209 1209 1208 1210 1210 1211 1209 1210 1211 1211 1210 1210 1210 1209 1209 1207 1206 1205 1206 1206 1208 1211 1216 1216 1215 1211 1208 1205 1203 1200 1197 1193 1190 1186 1183 1180 1176 1174 1173 1172 1168 1164 1158 1156 1152 1149 1144 1139 1138 1136 1132 1109 1070 1041 1030 1027 1026 1026 1029 0 0 1778 1755 1740 1757 1737 1741 1743 1749 1710 1744 1751 1740 1779 1775 1740 1731 1776 1768 1742 0
    0 0 0 0 0 1337 1352 1354 1367 1379 1389 1382 1380 1368 0 0 0 0 0 0 0 1703 1702 1710 1754 1766 1748 1764 1755 1736 1727 1761 0 0 1699 1687 0 0 1026 0 0 0 0 0 1018 1022 1021 1016 1004 1001 1000 1000 1000 1000 1000 1000 1000 1001 1001 1001 1001 1002 1002 1002 1001 1001 1002 1003 1004 1003 1002 1002 1003 1005 1005 1004 1003 1004 1004 1004 1004 1004 1004 1003 1002 1003 1004 1005 1006 1005 1004 1005 1006 1006 1006 1006 1004 1004 1003 1004 1005 1006 1006 1005 1006 1006 1008 1016 1038 1071 1098 1113 1126 1140 1149 1157 1163 1166 1170 1175 1181 1185 1189 1191 1193 1195 1195 1193 1192 1192 1193 1193 1194 1196 1195 1196 1195 1197 1197 1197 1197 1198 1201 1201 1201 1200 1200 1200 1200 1199 1200 1199 1198 1197 1198 1200 1200 1200 1199 1199 1197 1198 1199 1201 1199 1199 1198 1197 1196 1196 1197 1197 1198 1198 1198 1197 1197 1197 1197 1197 1196 1197 1196 1195 1195 1196 1196 1195 1193 1193 1194 1194 1194 1194 1195 1197 1196 1196 1194 1194 1194 1194 1194 1193 1191 1191 1192 1194 1194 1194 1195 1194 1193 1191 1193 1194 1195 1193 1193 1193 1193 1192 1191 1191 1192 1194 1193 1193 1192 1193 1193 1193 1191 1191 1191 1192 1192 1191 1193 1193 1194 1193 1194 1195 1194 1192 1192 1192 1193 1193 1194 1195 1194 1195 1194 1194 1193 1194 1193 1194 1193 1194 1193 1194 1193 1192 1192 1192 1193 1192 1193 1193 1194 1194 1195 1194 1193 1192 1192 1192 1194 1195 1194 1193 1193 1195 1195 1195 1193 1193 1193 1194 1193 1192 1192 1192 1193 1194 1194 1194 1194 1194 1194 1195 1196 1195 1193 1192 1192 1193 1193 1193 1195 1195 1195 1195 1195 1194 1194 1193 1195 1195 1196 1195 1194 1194 1194 1193 1193 1194 1195 1194 1194 1193 1195 1195 1196 1196 1196 1196 1194 1194 1195 1195 1195 1194 1196 1196 1196 1195 1194 1195 1196 1198 1196 1195 1195 1197 1197 1195 1194 1193 1194 1194 1195 1195 1195 1197 1196 1195 1197 1198 1200 1198 1197 1196 1196 1196 1197 1198 1197 1198 1199 1200 1200 1199 1201 1200 1201 1201 1202 1202 1201 1200 1200 1201 1201 1202 1202 1203 1203 1203 1203 1202 1203 1204 1204 1203 1203 1204 1205 1204 1202 1203 1204 1206 1206 1208 1207 1207 1208 1209 1207 1207 1206 1207 1207 1209 1209 1209 1209 1209 1209 1207 1209 1210 1211 1210 1211 1211 1212 1212 1210 1209 1207 1207 1206 1204 1203 1205 1205 1208 1211 1216 1217 1215 1212 1208 1206 1204 1201 1197 1194 1189 1185 1182 1180 1176 1174 1173 1172 1169 1164 1158 1155 1152 1149 1144 1140 1139 1138 1131 1108 1070 1040 1029 1027 1026 1027 1028 0 0 0 1754 0 1746 1738 1739 1709 1707 1744 1735 1737 1758 1777 1774 1752 1739 1766 1761 1752 0
    0 1193 0 1279 1388 1383 1361 1359 1367 1383 1384 1373 0 0 0 1608 0 0 1719 1710 0 0 1710 0 1730 1739 1746 1737 1738 1699 1688 0 0 0 0 1730 0 0 0 0 0 0 0 1015 1018 1024 1025 1020 1004 1001 1001 1001 1001 1000 1000 1000 1001 1001 1001 1002 1001 1001 1000 1001 1001 1001 1002 1002 1003 1002 1002 1002 1003 1005 1005 1004 1004 1003 1003 1002 1002 1003 1004 1003 1004 1004 1004 1003 1004 1005 1005 1006 1006 1007 1006 1006 1004 1005 1005 1005 1004 1005 1006 1006 1007 1006 1007 1016 1039 1073 1098 1113 1128 1141 1148 1155 1160 1166 1170 1175 1180 1184 1188 1191 1193 1194 1193 1191 1190 1190 1191 1193 1194 1194 1194 1195 1195 1196 1198 1197 1197 1198 1200 1201 1202 1202 1201 1200 1199 1200 1200 1200 1198 1197 1198 1200 1200 1201 1200 1200 1198 1198 1199 1200 1198 1199 1197 1195 1195 1196 1199 1198 1198 1198 1197 1196 1196 1197 1195 1195 1194 1194 1195 1195 1195 1195 1196 1195 1194 1193 1194 1193 1193 1193 1193 1195 1195 1194 1191 1192 1191 1193 1192 1192 1191 1192 1193 1194 1194 1194 1194 1194 1193 1193 1193 1193 1194 1193 1194 1193 1193 1192 1191 1192 1192 1193 1191 1192 1191 1193 1192 1192 1190 1190 1190 1192 1193 1194 1193 1194 1193 1194 1194 1195 1194 1192 1191 1191 1193 1193 1194 1194 1194 1194 1193 1193 1193 1193 1191 1193 1193 1195 1194 1194 1193 1194 1193 1194 1193 1193 1193 1193 1195 1195 1194 1193 1193 1192 1192 1192 1193 1193 1193 1193 1194 1195 1194 1195 1194 1194 1193 1194 1195 1194 1193 1193 1193 1194 1195 1195 1193 1193 1194 1196 1195 1194 1192 1192 1192 1191 1193 1193 1195 1196 1196 1195 1195 1193 1194 1192 1193 1194 1195 1194 1194 1193 1193 1193 1193 1194 1193 1194 1193 1194 1195 1196 1197 1196 1195 1196 1195 1196 1196 1196 1196 1195 1196 1196 1197 1196 1194 1194 1195 1197 1195 1194 1195 1197 1197 1195 1195 1194 1194 1196 1197 1197 1196 1196 1195 1194 1196 1199 1201 1199 1198 1196 1195 1195 1196 1198 1198 1198 1198 1197 1198 1198 1200 1200 1200 1200 1202 1202 1201 1201 1200 1201 1200 1201 1201 1203 1202 1203 1202 1203 1202 1203 1205 1204 1204 1204 1205 1205 1203 1204 1204 1205 1205 1206 1205 1206 1206 1207 1206 1207 1207 1208 1208 1209 1208 1208 1209 1210 1210 1209 1210 1210 1210 1210 1211 1212 1212 1211 1210 1210 1207 1206 1205 1204 1203 1204 1205 1209 1212 1215 1215 1215 1213 1208 1206 1202 1200 1197 1195 1192 1187 1183 1179 1177 1174 1173 1171 1168 1164 1160 1156 1152 1148 1144 1141 1141 1138 1131 1107 1069 1040 1028 1026 1024 1026 1025 0 0 0 0 0 1750 1740 1731 1717 1708 1733 1751 1746 1748 1753 1769 1758 1749 1759 1774 1757 0
    0 1375 1366 1375 1378 1376 1372 1356 1363 0 0 0 0 0 0 0 0 1715 1708 1709 1733 1757 0 1699 1723 1724 0 0 1704 1699 1662 0 0 0 1713 1735 0 0 0 0 0 0 0 0 1015 1019 1023 1018 1005 1002 1001 1001 1000 1001 1001 1001 1002 1002 1002 1001 1001 1001 1001 1002 1002 1002 1003 1003 1003 1004 1004 1004 1003 1005 1005 1004 1003 1002 1002 1002 1002 1003 1003 1003 1003 1004 1003 1003 1004 1006 1005 1006 1007 1007 1007 1007 1006 1006 1006 1007 1005 1006 1006 1008 1008 1007 1007 1017 1040 1074 1101 1115 1130 1143 1150 1156 1160 1166 1172 1177 1181 1185 1188 1191 1193 1194 1192 1189 1188 1188 1191 1192 1194 1195 1195 1195 1195 1195 1198 1198 1199 1198 1200 1202 1203 1202 1200 1200 1199 1200 1199 1199 1198 1199 1198 1199 1199 1199 1199 1199 1199 1198 1198 1198 1198 1198 1197 1196 1196 1198 1199 1198 1197 1198 1198 1197 1195 1196 1195 1195 1194 1194 1196 1196 1195 1194 1196 1196 1195 1194 1195 1194 1194 1193 1193 1194 1194 1193 1192 1192 1192 1193 1193 1194 1193 1193 1193 1193 1193 1192 1194 1194 1195 1193 1193 1193 1193 1194 1195 1194 1193 1192 1192 1192 1192 1193 1192 1192 1190 1191 1190 1191 1189 1190 1191 1193 1194 1195 1194 1194 1192 1192 1193 1195 1194 1193 1192 1192 1192 1193 1193 1194 1194 1193 1192 1192 1191 1191 1191 1192 1193 1194 1194 1193 1193 1193 1193 1193 1192 1191 1192 1192 1194 1193 1192 1191 1191 1191 1191 1191 1193 1193 1193 1193 1194 1194 1193 1194 1194 1193 1192 1193 1194 1193 1193 1193 1194 1194 1195 1192 1191 1191 1194 1196 1197 1194 1192 1191 1193 1192 1194 1193 1195 1195 1196 1195 1195 1195 1196 1194 1194 1194 1195 1193 1193 1192 1193 1194 1193 1193 1192 1194 1194 1195 1195 1196 1197 1197 1196 1196 1196 1196 1196 1196 1196 1196 1195 1195 1196 1196 1195 1194 1194 1195 1194 1194 1196 1196 1197 1196 1196 1194 1193 1195 1197 1197 1197 1197 1196 1194 1196 1198 1200 1198 1197 1197 1197 1198 1198 1198 1199 1199 1199 1197 1197 1198 1201 1201 1201 1200 1201 1202 1202 1202 1201 1202 1201 1201 1200 1202 1202 1203 1202 1203 1202 1203 1204 1203 1203 1203 1204 1205 1204 1204 1203 1203 1204 1204 1205 1206 1207 1207 1207 1207 1208 1209 1207 1208 1208 1209 1209 1209 1210 1210 1210 1210 1210 1210 1210 1210 1210 1211 1211 1211 1209 1207 1206 1205 1203 1203 1205 1208 1212 1214 1214 1214 1212 1208 1205 1202 1201 1198 1196 1193 1188 1185 1183 1181 1178 1174 1171 1168 1165 1161 1157 1153 1149 1145 1142 1140 1137 1131 1108 1069 1039 1028 1026 1024 1025 1027 0 0 0 0 0 1752 1749 1742 1725 1717 1743 1751 1749 1746 1742 1770 1770 1764 1774 1774 1772 0
    0 1373 1365 1367 1361 1358 1352 1338 0 0 0 0 0 1781 0 0 0 0 1689 0 0 1770 1723 1747 1714 1716 0 1701 1682 1685 1659 0 0 0 1717 1723 1735 0 0 0 0 0 0 0 1011 1016 1012 1013 1004 1002 1001 1001 1001 1001 1002 1001 1002 1003 1002 1002 1002 1003 1003 1003 1003 1003 1003 1003 1003 1004 1004 1004 1003 1004 1004 1004 1002 1002 1001 1002 1003 1004 1003 1003 1005 1006 1005 1004 1005 1005 1005 1005 1006 1006 1006 1006 1008 1008 1007 1007 1004 1006 1005 1008 1007 1007 1007 1017 1041 1076 1105 1118 1132 1142 1149 1154 1161 1168 1173 1178 1181 1185 1187 1191 1194 1195 1192 1188 1187 1187 1191 1193 1194 1193 1195 1196 1196 1196 1198 1199 1199 1198 1199 1201 1201 1200 1199 1199 1200 1200 1199 1199 1199 1199 1199 1199 1199 1198 1199 1200 1200 1199 1198 1198 1198 1199 1198 1197 1197 1199 1198 1198 1196 1196 1196 1196 1195 1195 1195 1195 1194 1194 1195 1194 1194 1194 1195 1196 1196 1194 1194 1194 1194 1193 1193 1193 1192 1192 1191 1192 1192 1194 1193 1194 1193 1192 1191 1191 1191 1191 1191 1192 1193 1193 1193 1192 1192 1193 1195 1195 1192 1192 1191 1192 1192 1193 1193 1192 1191 1191 1191 1191 1189 1191 1191 1194 1194 1194 1193 1193 1192 1192 1192 1193 1193 1193 1191 1191 1190 1190 1192 1193 1193 1192 1191 1191 1191 1192 1191 1192 1192 1193 1193 1194 1193 1193 1191 1190 1190 1192 1191 1191 1192 1193 1192 1191 1191 1192 1192 1193 1193 1193 1193 1194 1193 1194 1193 1194 1194 1194 1193 1193 1194 1194 1193 1193 1194 1194 1194 1193 1191 1192 1193 1195 1195 1193 1193 1192 1193 1194 1195 1194 1194 1194 1195 1194 1195 1196 1196 1194 1193 1194 1193 1192 1192 1191 1192 1193 1192 1193 1192 1195 1195 1195 1194 1196 1196 1197 1195 1195 1195 1197 1197 1197 1196 1195 1194 1194 1195 1194 1194 1195 1194 1194 1194 1196 1196 1197 1197 1197 1196 1196 1195 1197 1197 1198 1198 1197 1196 1196 1197 1198 1198 1196 1196 1197 1197 1198 1197 1197 1198 1198 1198 1196 1198 1198 1201 1200 1200 1199 1200 1202 1202 1202 1201 1201 1201 1202 1201 1202 1201 1202 1201 1202 1202 1203 1204 1203 1203 1204 1205 1205 1205 1204 1205 1205 1206 1206 1206 1205 1206 1207 1206 1207 1208 1209 1208 1208 1208 1208 1208 1209 1209 1210 1210 1211 1210 1210 1210 1209 1209 1210 1211 1212 1211 1208 1206 1205 1204 1203 1204 1208 1212 1214 1214 1213 1212 1208 1205 1202 1201 1198 1196 1192 1189 1186 1184 1182 1178 1174 1171 1169 1165 1161 1157 1154 1150 1146 1143 1139 1136 1131 1109 1069 1039 1028 1026 1026 1027 1032 1046 0 0 0 1738 1760 1750 1749 1733 1718 1742 1756 1754 1737 1754 1745 1767 1779 1789 1775 1774 0
    0 1357 1360 1356 1340 1328 1333 0 0 0 0 0 0 0 0 0 0 1686 1701 0 0 1752 1759 1758 1736 1691 1698 1694 1692 1673 1676 1681 0 0 0 1721 1710 0 1057 1064 0 0 0 0 1027 1006 1008 1010 1004 1002 1000 1000 1001 1001 1002 1001 1002 1003 1003 1003 1004 1005 1005 1005 1004 1004 1003 1004 1004 1005 1005 1005 1004 1004 1003 1004 1003 1003 1004 1005 1005 1004 1002 1003 1004 1006 1005 1005 1005 1004 1004 1005 1006 1006 1006 1006 1007 1006 1006 1006 1005 1005 1006 1007 1008 1008 1009 1018 1042 1076 1104 1118 1132 1141 1149 1156 1162 1168 1173 1179 1182 1185 1186 1189 1193 1196 1193 1189 1187 1188 1191 1193 1195 1194 1195 1196 1196 1198 1199 1200 1199 1198 1198 1199 1199 1200 1200 1201 1201 1200 1198 1198 1199 1201 1200 1199 1198 1197 1199 1200 1201 1199 1198 1198 1199 1200 1199 1199 1198 1199 1198 1198 1197 1197 1197 1196 1195 1194 1195 1195 1195 1196 1196 1195 1194 1194 1195 1194 1194 1193 1193 1192 1193 1194 1194 1193 1193 1193 1194 1194 1194 1194 1194 1194 1193 1192 1191 1192 1191 1191 1191 1192 1193 1192 1192 1191 1192 1193 1194 1194 1192 1192 1191 1191 1192 1194 1195 1193 1193 1191 1191 1191 1190 1191 1192 1193 1193 1193 1193 1192 1192 1191 1192 1193 1192 1192 1191 1190 1188 1188 1191 1192 1191 1191 1192 1192 1190 1191 1191 1192 1192 1192 1193 1194 1193 1191 1190 1189 1190 1191 1192 1192 1192 1192 1191 1191 1191 1191 1191 1192 1192 1193 1191 1192 1193 1193 1193 1194 1194 1194 1193 1194 1194 1194 1192 1192 1191 1192 1193 1193 1192 1193 1194 1195 1194 1193 1194 1193 1193 1193 1195 1194 1194 1193 1194 1193 1194 1195 1196 1195 1193 1193 1193 1192 1193 1193 1194 1194 1193 1193 1193 1196 1195 1196 1195 1195 1196 1196 1196 1195 1195 1196 1197 1197 1196 1195 1194 1194 1194 1194 1195 1195 1194 1193 1195 1196 1196 1195 1195 1194 1195 1195 1197 1197 1197 1197 1198 1199 1198 1197 1198 1198 1198 1197 1196 1197 1197 1198 1197 1198 1200 1199 1200 1197 1198 1197 1199 1199 1199 1199 1201 1202 1203 1202 1201 1201 1201 1202 1201 1201 1201 1201 1201 1201 1203 1204 1203 1203 1204 1204 1204 1203 1204 1204 1205 1204 1205 1206 1207 1206 1206 1207 1207 1207 1207 1209 1208 1209 1209 1208 1208 1208 1209 1209 1209 1210 1211 1210 1209 1208 1209 1210 1211 1210 1210 1208 1207 1205 1204 1204 1205 1208 1213 1216 1216 1214 1211 1208 1205 1203 1202 1198 1194 1190 1188 1185 1184 1182 1178 1174 1172 1170 1166 1161 1157 1154 1151 1147 1144 1139 1135 1129 1108 1068 1039 1028 1026 1025 1024 1030 0 0 0 0 1752 1757 1773 1756 1751 1745 1749 1749 1739 1749 1735 1737 1759 1777 1787 1799 1776 0
    0 1354 1352 1342 1328 0 0 0 0 0 1753 0 1692 0 0 1756 0 1738 1745 0 1707 1727 1747 1743 1736 1727 1702 1699 1703 1681 0 0 0 0 0 1714 1702 0 1072 0 0 0 0 0 1008 1001 1005 1009 1005 1003 1001 1000 1000 1001 1001 1001 1002 1003 1003 1003 1005 1005 1004 1003 1002 1003 1002 1003 1004 1004 1004 1004 1003 1002 1002 1004 1004 1004 1004 1005 1006 1006 1005 1004 1004 1005 1006 1006 1006 1004 1005 1006 1005 1005 1005 1006 1006 1006 1006 1005 1005 1004 1006 1006 1008 1007 1009 1018 1042 1076 1105 1120 1132 1142 1150 1156 1161 1167 1171 1177 1180 1185 1186 1190 1194 1197 1195 1190 1187 1187 1190 1193 1196 1196 1196 1195 1196 1199 1200 1200 1199 1198 1198 1198 1199 1201 1200 1201 1201 1200 1198 1199 1199 1201 1201 1201 1200 1198 1199 1199 1201 1199 1198 1198 1199 1200 1199 1198 1197 1197 1198 1198 1197 1196 1197 1197 1196 1195 1194 1194 1194 1195 1195 1195 1194 1193 1193 1193 1193 1192 1191 1191 1192 1193 1193 1193 1193 1195 1194 1194 1192 1192 1191 1192 1192 1192 1193 1193 1192 1191 1191 1192 1191 1190 1191 1191 1192 1192 1192 1193 1192 1192 1192 1192 1192 1192 1194 1193 1193 1192 1191 1190 1190 1191 1191 1192 1192 1193 1192 1192 1192 1191 1192 1192 1192 1191 1191 1190 1189 1188 1190 1191 1191 1192 1192 1192 1191 1190 1190 1191 1191 1190 1191 1193 1193 1191 1191 1191 1191 1191 1192 1193 1192 1193 1192 1193 1192 1192 1191 1192 1192 1192 1191 1192 1193 1193 1193 1194 1194 1194 1193 1195 1193 1194 1191 1192 1190 1193 1194 1195 1193 1195 1194 1195 1192 1192 1192 1195 1194 1194 1195 1195 1194 1192 1192 1192 1193 1194 1194 1193 1192 1192 1192 1193 1194 1195 1194 1194 1193 1195 1194 1195 1194 1195 1195 1194 1194 1194 1195 1195 1194 1196 1196 1197 1195 1195 1195 1196 1195 1195 1194 1194 1194 1195 1196 1197 1196 1195 1193 1192 1194 1196 1198 1198 1198 1197 1198 1198 1198 1198 1197 1198 1197 1198 1196 1195 1195 1194 1195 1197 1199 1198 1199 1197 1197 1197 1198 1199 1199 1200 1200 1201 1201 1201 1201 1201 1200 1201 1200 1201 1202 1202 1201 1202 1202 1203 1203 1205 1205 1205 1203 1203 1204 1205 1206 1206 1207 1208 1208 1208 1207 1209 1207 1209 1207 1209 1209 1210 1209 1207 1208 1208 1210 1209 1211 1212 1212 1211 1209 1208 1209 1210 1209 1209 1208 1208 1207 1207 1204 1204 1204 1209 1214 1216 1216 1215 1212 1209 1206 1204 1202 1197 1193 1189 1187 1184 1182 1180 1175 1173 1171 1170 1165 1161 1157 1154 1151 1147 1143 1139 1136 1129 1106 1068 1039 1028 1025 1023 1022 1024 1036 0 0 0 0 1744 1758 1757 1754 1756 1757 1750 1742 1728 1726 1739 1750 1765 1769 1773 1757 0</data></EmptySandboxInsideBox>
</opencv_storage>
