<?xml version="1.0"?>
<opencv_storage>
<EmptySandboxInsideBox type_id="opencv-matrix">
  <rows>38</rows>
  <cols>512</cols>
  <dt>w</dt>
  <data>
    0 0 0 0 0 0 1727 1697 0 0 0 0 0 1730 1773 1753 0 1703 0 0 0 1714 1766 1746 1729 1713 1716 1731 1735 1728 1732 1688 1714 1713 1728 1723 1712 1685 1706 1733 1733 1717 1684 0 0 0 1008 1017 1013 1019 1009 1005 1004 1005 1005 1005 1006 1006 1008 1007 1006 1006 1007 1008 1009 1008 1008 1007 1007 1007 1007 1007 1007 1006 1007 1009 1010 1009 1008 1009 1008 1008 1006 1006 1005 1006 1007 1007 1009 1009 1010 1009 1010 1008 1008 1009 1010 1011 1010 1011 1009 1009 1010 1011 1011 1011 1011 1012 1013 1016 1033 1064 1103 1124 1139 1149 1156 1161 1165 1170 1175 1180 1183 1187 1190 1194 1195 1196 1194 1189 1188 1189 1192 1191 1192 1193 1195 1196 1197 1198 1198 1198 1198 1199 1200 1198 1196 1196 1197 1198 1199 1200 1201 1200 1200 1200 1200 1200 1199 1200 1199 1199 1200 1200 1200 1199 1198 1198 1197 1197 1197 1197 1197 1198 1198 1198 1196 1196 1194 1194 1195 1195 1195 1195 1195 1194 1193 1194 1194 1194 1193 1195 1195 1194 1193 1193 1194 1193 1193 1192 1192 1191 1191 1193 1192 1192 1190 1190 1189 1189 1191 1191 1189 1188 1189 1190 1189 1190 1190 1190 1188 1189 1190 1191 1189 1189 1189 1190 1191 1191 1191 1189 1188 1188 1188 1188 1188 1188 1189 1188 1190 1191 1191 1192 1191 1192 1191 1192 1191 1190 1190 1189 1189 1189 1190 1192 1192 1191 1191 1191 1191 1190 1190 1190 1189 1186 1187 1190 1190 1189 1188 1188 1187 1188 1189 1189 1189 1189 1190 1190 1190 1190 1191 1191 1191 1192 1192 1191 1192 1192 1191 1192 1191 1192 1192 1192 1191 1190 1190 1191 1191 1192 1191 1191 1191 1191 1192 1193 1192 1192 1191 1191 1189 1190 1190 1190 1192 1193 1192 1192 1192 1191 1191 1191 1192 1191 1190 1191 1191 1193 1194 1194 1191 1190 1190 1191 1192 1193 1193 1193 1191 1192 1192 1193 1193 1192 1192 1193 1193 1193 1191 1191 1190 1190 1191 1191 1193 1193 1194 1193 1192 1192 1192 1193 1193 1194 1193 1193 1193 1193 1193 1194 1194 1195 1194 1193 1192 1193 1193 1195 1195 1194 1195 1195 1195 1195 1196 1196 1195 1195 1195 1196 1196 1198 1197 1197 1196 1196 1196 1198 1198 1197 1197 1197 1199 1200 1200 1200 1199 1200 1200 1201 1200 1201 1201 1201 1201 1201 1201 1200 1201 1201 1202 1201 1202 1202 1203 1203 1206 1208 1207 1206 1205 1205 1205 1204 1205 1205 1207 1206 1206 1204 1205 1204 1204 1204 1204 1204 1202 1202 1202 1202 1200 1200 1204 1209 1210 1209 1207 1205 1205 1203 1202 1199 1196 1193 1188 1185 1182 1179 1176 1174 1171 1167 1163 1159 1156 1153 1149 1146 1143 1141 1138 1133 1127 1103 1063 1033 1024 1020 1020 1019 1023 0 0 0 1772 1772 1768 1749 1745 1749 1761 1728 1703 1725 1770 1753 1735 1740 1737 0
    0 0 0 0 0 0 0 1707 0 0 0 0 1788 0 0 0 1741 0 1733 1736 1761 1780 1733 1750 1769 1737 1728 1695 1736 1734 1692 1691 1720 1727 1720 1728 1734 1693 1693 1726 1726 1726 0 0 0 0 1055 1026 1024 1022 1011 1006 1004 1004 1004 1006 1006 1007 1006 1006 1005 1006 1007 1007 1008 1008 1008 1008 1008 1008 1009 1008 1007 1007 1008 1009 1009 1008 1008 1008 1009 1008 1007 1007 1006 1006 1006 1007 1008 1009 1008 1009 1009 1009 1009 1010 1009 1009 1010 1011 1011 1010 1011 1011 1010 1011 1011 1012 1013 1017 1034 1064 1102 1124 1140 1151 1157 1161 1165 1170 1175 1179 1183 1187 1190 1194 1195 1195 1193 1189 1189 1188 1190 1190 1193 1194 1196 1197 1197 1198 1197 1198 1198 1199 1199 1199 1198 1199 1200 1200 1200 1200 1200 1200 1200 1199 1199 1199 1200 1200 1199 1199 1200 1200 1199 1199 1199 1198 1197 1197 1196 1196 1196 1197 1197 1197 1196 1195 1194 1194 1195 1195 1195 1194 1194 1193 1193 1194 1195 1194 1194 1194 1195 1194 1194 1192 1192 1191 1192 1191 1191 1191 1192 1193 1194 1193 1192 1192 1191 1190 1190 1191 1190 1189 1189 1189 1189 1189 1190 1189 1187 1188 1190 1191 1189 1190 1190 1190 1192 1192 1192 1189 1188 1188 1189 1188 1189 1187 1188 1188 1191 1190 1191 1191 1192 1191 1191 1191 1192 1190 1190 1190 1190 1190 1191 1191 1191 1191 1192 1193 1192 1189 1190 1190 1191 1188 1189 1190 1190 1188 1186 1187 1187 1188 1189 1189 1189 1189 1190 1190 1189 1188 1189 1189 1190 1190 1191 1191 1191 1191 1190 1191 1192 1193 1193 1192 1191 1189 1189 1190 1190 1190 1190 1190 1190 1190 1192 1193 1192 1192 1191 1190 1190 1191 1192 1191 1192 1192 1192 1191 1191 1191 1191 1191 1191 1190 1190 1191 1191 1192 1193 1192 1191 1190 1190 1190 1191 1193 1193 1193 1192 1192 1193 1193 1192 1191 1192 1193 1193 1192 1191 1191 1189 1189 1190 1191 1192 1192 1192 1191 1192 1192 1192 1192 1192 1192 1192 1193 1193 1193 1192 1193 1195 1195 1195 1193 1193 1194 1195 1196 1195 1194 1194 1195 1195 1195 1196 1196 1195 1195 1196 1197 1197 1198 1197 1197 1196 1196 1196 1197 1197 1197 1198 1198 1198 1199 1200 1200 1200 1200 1200 1200 1199 1200 1200 1201 1200 1200 1201 1200 1201 1202 1203 1202 1202 1203 1203 1202 1205 1206 1206 1205 1204 1204 1205 1205 1204 1205 1206 1205 1205 1204 1204 1204 1205 1204 1203 1203 1202 1202 1202 1200 1199 1199 1204 1209 1211 1210 1208 1206 1204 1202 1200 1198 1195 1191 1188 1185 1183 1180 1177 1174 1171 1168 1163 1159 1155 1152 1148 1145 1142 1139 1137 1131 1126 1102 1062 1033 1024 1021 1020 1020 1027 0 0 0 0 1766 1759 1743 1748 1755 1741 1728 1711 1715 1764 1756 1751 1755 1757 0
    0 0 0 1761 1757 1710 0 0 0 0 0 0 1793 0 0 0 0 1739 0 1743 1756 1767 1751 1784 0 1755 1718 1706 1716 1729 1700 1718 1731 1734 1734 1735 1727 1706 1699 1706 1723 1727 1740 0 0 0 1033 1040 1028 1019 1009 1006 1005 1005 1005 1007 1007 1007 1006 1006 1006 1005 1006 1005 1006 1006 1007 1008 1010 1010 1010 1008 1008 1007 1008 1008 1007 1007 1008 1009 1010 1010 1009 1008 1007 1007 1008 1008 1009 1008 1007 1008 1009 1010 1009 1010 1008 1009 1010 1011 1010 1009 1010 1011 1011 1011 1011 1010 1011 1015 1033 1063 1103 1125 1140 1151 1157 1161 1165 1171 1175 1178 1182 1186 1190 1193 1194 1194 1192 1191 1190 1190 1191 1192 1193 1194 1194 1195 1196 1198 1198 1199 1199 1200 1200 1200 1200 1201 1201 1201 1200 1201 1200 1199 1198 1198 1199 1199 1200 1200 1200 1199 1199 1198 1199 1199 1199 1199 1198 1197 1195 1195 1195 1195 1196 1195 1196 1195 1195 1194 1194 1195 1194 1194 1194 1193 1193 1193 1194 1194 1195 1195 1195 1194 1194 1192 1191 1190 1191 1191 1191 1191 1191 1192 1192 1192 1191 1191 1190 1190 1189 1191 1192 1191 1190 1189 1190 1190 1191 1189 1188 1188 1191 1191 1190 1190 1191 1191 1191 1190 1190 1187 1188 1187 1188 1188 1190 1189 1189 1188 1189 1189 1190 1191 1192 1190 1190 1190 1192 1191 1191 1189 1190 1190 1191 1191 1190 1191 1191 1191 1190 1188 1189 1189 1191 1190 1191 1190 1190 1190 1189 1189 1187 1188 1189 1189 1188 1189 1190 1190 1190 1189 1189 1189 1190 1190 1190 1189 1190 1190 1190 1191 1190 1192 1191 1192 1191 1190 1189 1190 1190 1191 1191 1192 1190 1190 1191 1192 1192 1192 1192 1191 1190 1191 1191 1191 1192 1193 1192 1192 1192 1192 1192 1191 1191 1191 1192 1193 1192 1192 1191 1191 1190 1190 1191 1192 1192 1193 1193 1193 1192 1193 1194 1195 1194 1193 1192 1192 1191 1192 1192 1192 1190 1191 1191 1193 1193 1192 1192 1191 1192 1192 1194 1194 1193 1192 1193 1194 1194 1194 1193 1193 1194 1195 1195 1195 1194 1194 1195 1196 1195 1194 1194 1195 1195 1194 1196 1196 1198 1197 1197 1197 1197 1197 1197 1197 1196 1195 1195 1196 1196 1197 1197 1198 1199 1199 1200 1200 1200 1200 1200 1200 1200 1199 1200 1201 1200 1200 1201 1200 1201 1201 1202 1203 1204 1204 1203 1202 1204 1205 1205 1204 1204 1205 1205 1205 1204 1205 1206 1206 1206 1206 1206 1205 1204 1204 1203 1203 1203 1203 1202 1201 1199 1200 1204 1210 1212 1209 1206 1205 1205 1202 1200 1197 1195 1192 1188 1185 1182 1178 1176 1174 1172 1169 1165 1160 1155 1152 1149 1146 1142 1139 1136 1132 1127 1104 1063 1033 1025 1021 1020 1020 1026 0 0 0 0 1749 1738 1756 1755 1752 1740 1730 1721 1737 1738 1753 1761 1767 1759 0
    0 0 0 0 0 1793 1760 0 0 0 0 0 0 0 1763 1751 1758 0 1735 1728 1735 1739 1765 1733 1743 1730 1702 1710 1717 1726 1729 1728 1738 1743 1742 1723 1708 1708 1706 1717 1716 1720 1714 0 0 0 1022 1038 1035 1021 1011 1008 1006 1006 1006 1007 1007 1007 1006 1006 1005 1004 1005 1005 1006 1007 1008 1008 1010 1009 1009 1009 1009 1009 1009 1009 1008 1007 1008 1007 1008 1008 1009 1009 1009 1007 1008 1008 1008 1008 1007 1009 1009 1010 1009 1010 1009 1008 1009 1010 1011 1009 1010 1011 1012 1012 1011 1010 1012 1015 1033 1064 1105 1126 1140 1150 1155 1160 1166 1171 1176 1178 1183 1187 1190 1193 1193 1195 1194 1192 1189 1190 1192 1193 1194 1195 1194 1194 1194 1196 1197 1199 1200 1201 1201 1200 1200 1201 1202 1202 1200 1200 1199 1199 1199 1198 1197 1198 1199 1199 1198 1198 1199 1198 1199 1198 1198 1198 1197 1197 1196 1195 1193 1193 1194 1194 1195 1194 1194 1194 1195 1195 1195 1194 1195 1194 1193 1193 1194 1196 1195 1195 1195 1195 1195 1193 1191 1191 1192 1193 1193 1193 1193 1192 1192 1192 1192 1191 1191 1190 1190 1190 1191 1191 1189 1189 1191 1191 1191 1188 1188 1188 1189 1189 1189 1188 1190 1190 1191 1190 1190 1189 1191 1190 1191 1190 1190 1189 1190 1189 1190 1189 1190 1191 1191 1189 1189 1189 1190 1190 1190 1189 1190 1190 1191 1191 1191 1191 1190 1190 1190 1189 1190 1189 1190 1190 1189 1189 1188 1189 1188 1189 1188 1188 1188 1189 1189 1190 1189 1190 1190 1188 1188 1188 1190 1189 1190 1188 1189 1188 1189 1189 1189 1190 1190 1191 1190 1190 1188 1189 1190 1192 1191 1191 1189 1188 1189 1190 1191 1191 1193 1191 1191 1191 1192 1191 1192 1192 1192 1192 1192 1193 1193 1191 1190 1191 1192 1191 1189 1189 1189 1190 1191 1192 1192 1192 1191 1191 1191 1191 1191 1191 1192 1193 1193 1193 1192 1191 1191 1193 1193 1193 1191 1191 1192 1193 1192 1191 1191 1191 1191 1192 1193 1193 1193 1192 1193 1194 1195 1195 1194 1193 1194 1194 1195 1194 1194 1195 1196 1196 1195 1196 1196 1196 1194 1194 1195 1197 1198 1197 1197 1197 1197 1197 1197 1198 1197 1197 1197 1197 1198 1197 1197 1198 1199 1198 1199 1199 1200 1198 1199 1200 1200 1199 1200 1201 1200 1199 1200 1200 1201 1201 1203 1203 1204 1203 1202 1201 1203 1205 1204 1205 1204 1205 1205 1205 1205 1206 1206 1204 1204 1205 1204 1204 1204 1205 1204 1204 1203 1203 1201 1201 1200 1199 1203 1208 1210 1207 1206 1206 1205 1201 1197 1195 1193 1191 1187 1185 1181 1178 1176 1173 1172 1169 1165 1161 1155 1152 1149 1146 1143 1139 1137 1133 1128 1104 1064 1033 1024 1020 1020 1021 1026 0 0 0 1756 1757 1746 1733 1744 1742 1738 1741 1745 1757 1758 1754 1758 1757 1751 0
    0 0 0 0 0 0 1819 0 1676 0 1687 0 0 0 0 1757 1743 0 1726 1730 1722 1726 1733 1730 1709 1712 1674 1684 1732 1726 1714 1728 1746 1740 1719 1719 1714 1712 1711 1716 1711 1720 1737 0 0 0 1060 1038 1033 1020 1009 1008 1006 1006 1007 1007 1005 1005 1006 1005 1004 1004 1004 1004 1005 1006 1007 1007 1008 1007 1007 1008 1008 1008 1008 1008 1007 1006 1007 1007 1007 1008 1009 1009 1009 1008 1008 1008 1008 1009 1009 1010 1009 1009 1008 1009 1008 1008 1008 1010 1011 1009 1010 1011 1013 1012 1010 1010 1012 1015 1032 1063 1105 1127 1140 1149 1154 1159 1164 1171 1176 1180 1184 1187 1190 1193 1194 1196 1194 1192 1190 1191 1193 1194 1193 1194 1193 1193 1193 1194 1196 1196 1199 1199 1200 1200 1201 1202 1202 1201 1200 1201 1201 1200 1198 1197 1197 1197 1198 1198 1197 1197 1198 1199 1199 1199 1197 1197 1196 1196 1194 1194 1193 1193 1194 1195 1194 1194 1194 1194 1194 1194 1195 1195 1195 1195 1194 1193 1193 1193 1193 1194 1195 1195 1195 1194 1192 1192 1192 1192 1192 1192 1192 1192 1191 1191 1191 1191 1191 1191 1191 1191 1192 1192 1190 1190 1190 1191 1191 1189 1188 1188 1190 1190 1189 1188 1189 1189 1191 1190 1190 1189 1191 1191 1191 1190 1190 1191 1191 1191 1190 1190 1189 1190 1189 1189 1189 1190 1191 1191 1190 1189 1190 1190 1192 1192 1191 1191 1190 1190 1190 1189 1189 1189 1189 1189 1189 1189 1189 1190 1189 1189 1188 1189 1188 1189 1190 1190 1189 1189 1190 1190 1189 1188 1189 1189 1190 1190 1190 1190 1190 1191 1190 1190 1189 1190 1190 1192 1190 1191 1190 1194 1192 1192 1190 1190 1189 1189 1191 1192 1194 1192 1192 1192 1191 1191 1191 1192 1192 1193 1193 1193 1192 1192 1191 1192 1192 1191 1190 1190 1189 1191 1191 1192 1191 1192 1191 1191 1191 1191 1191 1191 1192 1193 1193 1193 1192 1191 1192 1193 1193 1192 1191 1192 1192 1193 1192 1193 1193 1193 1192 1192 1192 1192 1192 1193 1194 1194 1194 1194 1193 1193 1193 1193 1193 1193 1194 1194 1195 1196 1195 1197 1196 1196 1194 1194 1196 1198 1199 1197 1198 1197 1197 1197 1197 1197 1197 1196 1197 1198 1199 1198 1198 1199 1200 1199 1199 1199 1199 1199 1200 1200 1200 1200 1200 1200 1200 1201 1202 1202 1203 1202 1203 1203 1205 1204 1203 1202 1203 1205 1205 1206 1205 1206 1205 1205 1206 1206 1206 1204 1204 1205 1205 1203 1202 1204 1203 1204 1203 1203 1201 1201 1200 1200 1203 1209 1210 1207 1205 1206 1205 1202 1198 1196 1194 1191 1187 1184 1181 1178 1176 1173 1173 1170 1165 1161 1155 1151 1148 1145 1143 1140 1137 1134 1128 1104 1062 1033 1023 1020 1019 1020 1021 999 0 0 1745 1734 1734 1726 1738 1741 1741 1758 1770 1778 1763 1760 1739 1736 1765 0
    0 0 0 0 0 0 0 0 0 0 0 0 1771 0 1725 1708 1749 0 1770 1730 1743 1748 1752 1739 1700 1664 1684 1672 1692 1734 1724 1723 1725 1733 1710 1713 1725 1730 1723 0 1702 0 0 0 0 0 1049 1032 1026 1019 1013 1010 1007 1007 1006 1006 1005 1004 1004 1004 1004 1005 1005 1005 1006 1006 1007 1007 1007 1005 1006 1007 1008 1009 1009 1009 1007 1006 1006 1005 1005 1006 1007 1009 1008 1007 1008 1009 1010 1011 1010 1011 1009 1009 1008 1010 1009 1008 1009 1010 1010 1008 1009 1011 1013 1012 1009 1009 1012 1015 1032 1064 1106 1126 1141 1149 1155 1160 1165 1171 1177 1181 1185 1187 1189 1192 1195 1197 1195 1191 1189 1190 1192 1193 1194 1194 1194 1194 1194 1193 1195 1196 1198 1198 1199 1199 1201 1202 1202 1200 1198 1199 1200 1200 1199 1198 1198 1197 1198 1198 1198 1198 1199 1199 1199 1199 1198 1198 1196 1196 1195 1196 1195 1195 1194 1195 1195 1195 1195 1194 1194 1193 1193 1194 1196 1196 1195 1194 1193 1192 1192 1193 1194 1194 1194 1193 1193 1191 1191 1191 1192 1192 1192 1193 1192 1192 1192 1190 1190 1190 1190 1190 1190 1190 1189 1190 1190 1191 1190 1189 1188 1189 1191 1191 1190 1188 1188 1187 1190 1190 1191 1190 1190 1191 1191 1190 1190 1191 1191 1192 1191 1190 1189 1190 1189 1190 1190 1191 1191 1191 1190 1191 1190 1190 1190 1190 1190 1189 1190 1192 1191 1190 1190 1190 1190 1189 1188 1188 1188 1190 1188 1188 1188 1188 1189 1188 1188 1188 1189 1189 1190 1189 1188 1187 1189 1189 1191 1190 1190 1189 1189 1191 1190 1190 1189 1190 1190 1191 1190 1191 1190 1192 1191 1192 1191 1191 1190 1190 1191 1191 1191 1190 1191 1191 1191 1191 1191 1191 1192 1193 1192 1192 1192 1192 1192 1191 1191 1190 1189 1189 1190 1191 1192 1192 1191 1191 1191 1191 1192 1191 1191 1190 1190 1190 1190 1192 1193 1194 1192 1192 1191 1190 1190 1191 1192 1192 1192 1192 1193 1192 1192 1191 1191 1191 1192 1193 1193 1194 1193 1192 1192 1192 1194 1194 1194 1192 1193 1193 1194 1194 1194 1196 1196 1196 1195 1194 1197 1197 1198 1196 1197 1198 1197 1197 1198 1198 1197 1196 1197 1198 1199 1197 1198 1199 1200 1199 1199 1198 1199 1198 1200 1200 1201 1200 1201 1200 1201 1201 1202 1202 1203 1202 1203 1204 1206 1205 1202 1201 1202 1204 1205 1206 1206 1205 1205 1204 1205 1204 1205 1203 1204 1204 1204 1203 1203 1203 1203 1203 1203 1202 1201 1200 1200 1200 1203 1208 1211 1208 1206 1206 1205 1202 1199 1195 1192 1189 1187 1185 1183 1179 1177 1174 1173 1170 1165 1161 1156 1152 1147 1144 1143 1141 1139 1134 1127 1102 1062 1033 1023 1020 1018 1018 1023 0 0 0 0 1720 1706 1728 1741 1745 1743 1763 1772 1759 1741 1752 1744 1725 1717 0
    0 0 1758 0 0 0 0 1758 0 0 0 0 0 0 1738 1692 1742 1779 0 1749 1733 1743 1741 0 1680 0 0 1736 1747 1750 1729 1709 1719 1725 1725 1727 1729 1743 1736 1741 1694 1713 0 0 0 0 1013 1020 1020 1017 1012 1008 1006 1005 1005 1006 1005 1003 1003 1004 1005 1005 1006 1006 1007 1007 1008 1007 1007 1005 1005 1005 1007 1008 1009 1009 1007 1006 1005 1005 1005 1005 1006 1007 1008 1008 1009 1010 1012 1012 1010 1010 1008 1007 1008 1010 1010 1010 1010 1011 1010 1008 1009 1012 1013 1011 1009 1008 1011 1015 1032 1065 1105 1126 1140 1150 1156 1160 1164 1170 1176 1181 1184 1186 1188 1191 1194 1196 1194 1191 1189 1190 1191 1192 1193 1194 1195 1195 1195 1195 1196 1198 1198 1197 1198 1199 1201 1202 1201 1200 1199 1199 1200 1199 1198 1197 1198 1198 1198 1199 1199 1198 1198 1198 1197 1198 1198 1199 1197 1197 1196 1196 1198 1198 1197 1196 1197 1196 1195 1193 1193 1192 1192 1193 1194 1195 1194 1193 1192 1191 1191 1193 1193 1193 1193 1193 1192 1191 1190 1190 1192 1192 1192 1191 1191 1190 1191 1190 1190 1190 1190 1191 1190 1191 1190 1190 1189 1188 1189 1189 1189 1191 1193 1193 1192 1190 1190 1188 1190 1190 1191 1190 1190 1191 1192 1191 1190 1191 1192 1191 1191 1189 1189 1190 1190 1189 1189 1191 1191 1192 1192 1191 1189 1189 1189 1189 1189 1190 1191 1191 1190 1190 1189 1189 1190 1190 1190 1190 1189 1190 1189 1190 1189 1189 1189 1187 1188 1188 1190 1191 1191 1189 1188 1187 1189 1190 1192 1192 1189 1190 1190 1192 1191 1191 1189 1189 1191 1192 1191 1192 1190 1192 1190 1192 1192 1193 1191 1190 1190 1191 1191 1191 1190 1190 1190 1190 1190 1190 1191 1192 1191 1191 1191 1192 1192 1191 1191 1191 1191 1192 1191 1193 1192 1193 1192 1191 1191 1192 1193 1192 1192 1191 1191 1190 1190 1191 1193 1194 1192 1192 1191 1192 1191 1192 1193 1193 1192 1192 1192 1192 1192 1193 1192 1193 1193 1194 1193 1194 1193 1193 1192 1193 1193 1193 1193 1192 1193 1193 1194 1195 1195 1196 1195 1195 1194 1194 1195 1197 1197 1196 1196 1197 1197 1197 1198 1198 1196 1196 1197 1198 1198 1198 1198 1200 1200 1200 1199 1198 1199 1199 1201 1201 1201 1200 1201 1201 1203 1203 1202 1203 1202 1202 1202 1205 1207 1206 1204 1203 1203 1204 1204 1205 1205 1205 1205 1205 1205 1204 1205 1205 1204 1205 1205 1204 1203 1203 1204 1204 1204 1202 1201 1200 1200 1201 1203 1209 1210 1209 1206 1206 1205 1204 1201 1197 1192 1188 1187 1185 1183 1179 1177 1174 1172 1170 1166 1162 1156 1151 1146 1142 1142 1141 1138 1134 1129 1105 1062 1033 1024 1022 1019 1018 1024 0 0 0 1734 0 1721 1726 1746 1748 1746 1761 1752 1731 1742 1760 1751 1739 1725 0
    0 1768 0 0 0 0 0 0 0 0 0 0 0 1754 1771 1732 1742 1759 1762 1704 1696 1716 1709 1683 0 1733 1747 1752 1731 1747 1720 1705 1718 1730 1746 1739 1741 1740 1771 1684 1699 1706 1720 1717 0 0 1004 1013 1017 1018 1014 1007 1005 1004 1005 1005 1004 1003 1003 1004 1005 1006 1006 1007 1007 1008 1009 1008 1008 1007 1006 1005 1006 1008 1008 1008 1008 1008 1006 1006 1005 1005 1006 1008 1009 1008 1008 1009 1011 1010 1009 1010 1009 1008 1009 1010 1010 1010 1011 1010 1009 1007 1008 1010 1011 1011 1009 1008 1010 1015 1033 1065 1104 1126 1140 1149 1156 1161 1166 1171 1176 1181 1184 1185 1188 1192 1194 1196 1194 1191 1190 1191 1192 1192 1193 1195 1196 1195 1194 1195 1197 1198 1198 1196 1196 1197 1198 1198 1198 1200 1198 1199 1199 1199 1198 1198 1199 1199 1199 1200 1200 1200 1198 1197 1196 1198 1199 1199 1197 1197 1196 1196 1197 1198 1199 1198 1198 1195 1195 1193 1192 1192 1192 1193 1194 1194 1194 1193 1193 1193 1193 1193 1193 1193 1194 1193 1193 1191 1191 1190 1191 1191 1191 1190 1190 1190 1190 1189 1189 1190 1189 1190 1190 1190 1191 1190 1189 1188 1188 1190 1190 1192 1193 1192 1192 1191 1192 1190 1189 1189 1191 1191 1190 1190 1191 1190 1190 1191 1192 1190 1190 1188 1191 1192 1192 1190 1190 1190 1189 1190 1191 1192 1190 1190 1189 1189 1189 1189 1190 1190 1190 1189 1190 1191 1191 1191 1191 1190 1190 1189 1189 1189 1190 1190 1189 1188 1188 1188 1189 1190 1189 1189 1188 1187 1188 1189 1191 1191 1190 1190 1190 1191 1191 1190 1188 1188 1189 1190 1189 1189 1188 1188 1189 1191 1191 1191 1190 1190 1190 1191 1190 1189 1188 1189 1189 1189 1189 1190 1191 1192 1192 1191 1192 1191 1190 1189 1189 1191 1191 1192 1192 1192 1192 1193 1193 1192 1192 1192 1193 1191 1191 1191 1192 1190 1189 1190 1192 1193 1192 1192 1192 1192 1190 1191 1191 1191 1191 1191 1192 1192 1193 1194 1193 1192 1192 1193 1193 1193 1192 1192 1192 1192 1193 1194 1195 1193 1193 1192 1193 1194 1194 1195 1195 1195 1194 1194 1194 1196 1195 1195 1196 1196 1197 1197 1198 1199 1198 1197 1198 1198 1197 1196 1198 1200 1200 1200 1199 1199 1199 1199 1201 1201 1202 1202 1203 1202 1203 1202 1201 1201 1201 1202 1203 1205 1206 1206 1204 1204 1203 1203 1203 1204 1205 1204 1205 1204 1204 1204 1205 1204 1204 1203 1204 1203 1204 1204 1206 1205 1204 1201 1201 1200 1199 1199 1202 1208 1210 1210 1207 1205 1203 1202 1201 1196 1191 1188 1187 1184 1182 1179 1177 1174 1171 1169 1165 1162 1157 1153 1148 1144 1142 1140 1137 1133 1129 1105 1063 1033 1025 1022 1020 1018 1021 0 0 0 1787 1743 1728 1733 1728 1741 1744 1756 1747 1739 1743 1758 1767 1761 1775 0
    0 1754 0 0 0 0 0 0 0 0 0 0 0 1783 1742 0 1744 1771 1743 1710 1758 1700 1684 1699 1704 1725 0 1725 1725 0 1712 1734 1723 1733 1745 1747 1757 1760 1701 1700 1703 1705 1716 1714 0 0 1024 1021 1019 1021 1013 1005 1004 1003 1004 1004 1004 1003 1003 1004 1004 1006 1006 1006 1007 1007 1008 1007 1008 1007 1007 1005 1005 1006 1006 1006 1007 1008 1009 1008 1007 1007 1007 1007 1008 1006 1006 1007 1008 1010 1010 1012 1010 1008 1007 1008 1009 1009 1011 1011 1010 1008 1008 1009 1009 1009 1008 1009 1011 1015 1033 1064 1104 1126 1141 1150 1156 1159 1165 1170 1176 1181 1184 1186 1188 1191 1193 1194 1194 1191 1190 1191 1192 1192 1193 1195 1196 1195 1195 1197 1198 1199 1198 1196 1195 1197 1197 1197 1197 1199 1199 1199 1199 1199 1197 1197 1198 1199 1200 1199 1200 1200 1199 1197 1197 1197 1197 1198 1196 1196 1195 1196 1196 1197 1198 1197 1196 1194 1193 1193 1192 1193 1193 1194 1193 1193 1193 1194 1193 1194 1193 1193 1193 1194 1194 1194 1193 1193 1193 1192 1192 1190 1190 1189 1190 1189 1190 1190 1190 1190 1190 1189 1190 1190 1191 1190 1190 1188 1188 1190 1190 1191 1190 1190 1191 1191 1193 1192 1191 1190 1191 1192 1191 1191 1191 1191 1191 1191 1192 1190 1189 1188 1190 1191 1191 1190 1190 1190 1189 1188 1190 1191 1191 1190 1190 1190 1191 1191 1191 1190 1189 1190 1190 1191 1191 1191 1191 1190 1189 1189 1188 1189 1190 1191 1190 1191 1192 1191 1188 1188 1188 1190 1190 1189 1189 1189 1191 1191 1191 1190 1190 1190 1191 1191 1188 1188 1188 1190 1190 1190 1190 1190 1191 1191 1190 1189 1190 1190 1190 1190 1191 1190 1190 1190 1190 1190 1190 1190 1191 1191 1192 1192 1191 1191 1189 1188 1189 1191 1193 1193 1193 1192 1192 1191 1192 1192 1191 1192 1193 1192 1192 1192 1192 1192 1191 1191 1191 1192 1192 1193 1193 1193 1191 1192 1192 1192 1192 1192 1192 1193 1193 1195 1194 1193 1193 1194 1195 1194 1193 1193 1192 1192 1192 1194 1193 1193 1193 1193 1194 1195 1197 1197 1195 1195 1193 1195 1195 1196 1194 1195 1195 1196 1197 1197 1198 1199 1199 1199 1198 1198 1196 1197 1197 1199 1199 1200 1200 1199 1199 1200 1200 1200 1200 1201 1202 1202 1202 1202 1202 1202 1202 1203 1203 1206 1206 1206 1206 1206 1206 1205 1205 1204 1205 1205 1206 1206 1205 1205 1205 1205 1203 1203 1204 1204 1204 1203 1205 1205 1205 1203 1203 1201 1199 1199 1201 1208 1209 1209 1206 1204 1203 1202 1200 1196 1193 1189 1187 1183 1182 1178 1176 1173 1171 1169 1165 1162 1157 1152 1148 1144 1143 1138 1135 1133 1129 1106 1064 1034 1024 1022 1019 1018 1020 0 0 0 0 1757 1742 1738 1736 1727 1735 1746 1749 1748 1745 1757 1757 1789 1779 0
    0 0 0 0 0 1662 0 0 0 0 0 0 0 0 1759 0 0 0 1747 1778 0 1732 0 1698 0 1722 0 1727 1706 0 0 0 1754 1710 1722 1742 1757 1750 1716 1725 1701 1693 1702 0 0 0 1033 1027 1024 1021 1014 1007 1004 1003 1004 1004 1005 1004 1004 1004 1004 1005 1006 1006 1006 1007 1007 1007 1006 1007 1006 1007 1006 1007 1005 1005 1007 1008 1010 1010 1009 1009 1008 1008 1007 1006 1006 1007 1008 1009 1009 1012 1011 1011 1008 1008 1008 1008 1010 1010 1010 1007 1007 1007 1008 1009 1008 1008 1009 1013 1031 1064 1104 1125 1141 1152 1159 1162 1166 1170 1176 1180 1184 1186 1190 1193 1195 1196 1195 1192 1190 1191 1192 1193 1195 1196 1196 1194 1194 1195 1196 1197 1197 1197 1196 1197 1197 1198 1198 1199 1198 1198 1199 1199 1198 1197 1199 1199 1198 1198 1200 1200 1200 1199 1198 1197 1197 1197 1195 1195 1195 1196 1196 1195 1197 1197 1196 1194 1193 1194 1193 1193 1194 1194 1193 1193 1193 1194 1194 1196 1195 1195 1193 1194 1195 1194 1193 1193 1192 1191 1191 1191 1192 1192 1192 1192 1191 1190 1190 1189 1189 1187 1188 1188 1190 1191 1192 1191 1190 1190 1190 1189 1189 1189 1190 1191 1192 1192 1191 1190 1191 1192 1192 1190 1189 1190 1190 1191 1191 1189 1189 1189 1190 1191 1190 1190 1191 1190 1188 1187 1189 1191 1191 1190 1191 1191 1190 1189 1190 1190 1189 1189 1190 1191 1191 1191 1190 1189 1189 1189 1189 1189 1190 1191 1190 1190 1190 1190 1188 1187 1188 1189 1190 1189 1189 1190 1191 1191 1191 1190 1190 1189 1190 1189 1187 1186 1186 1189 1190 1190 1190 1190 1191 1190 1190 1188 1190 1190 1191 1190 1190 1190 1191 1190 1191 1190 1191 1190 1190 1189 1191 1192 1191 1190 1188 1187 1188 1190 1192 1192 1193 1191 1191 1190 1190 1191 1191 1192 1192 1192 1192 1192 1193 1193 1192 1191 1191 1191 1192 1192 1192 1191 1190 1190 1191 1191 1192 1192 1191 1192 1192 1194 1194 1193 1192 1192 1193 1193 1192 1191 1191 1192 1193 1194 1194 1193 1193 1192 1193 1194 1196 1196 1195 1195 1194 1195 1196 1196 1196 1195 1196 1195 1196 1196 1197 1198 1199 1199 1198 1196 1195 1195 1197 1198 1198 1199 1200 1199 1200 1199 1200 1200 1201 1200 1201 1200 1200 1199 1201 1201 1202 1202 1203 1204 1205 1205 1204 1204 1206 1206 1206 1204 1204 1205 1206 1205 1204 1204 1205 1205 1204 1204 1204 1203 1203 1203 1203 1204 1204 1204 1203 1201 1198 1197 1200 1207 1209 1209 1206 1204 1202 1201 1199 1196 1194 1191 1188 1184 1180 1177 1176 1173 1172 1169 1165 1160 1156 1152 1149 1145 1143 1139 1135 1132 1128 1105 1063 1033 1023 1020 1018 1018 1022 0 0 0 0 1754 1741 1733 1725 1731 1723 1743 1745 1747 1753 1756 1758 1750 1755 0
    0 0 0 0 0 0 1688 0 0 0 1687 1703 0 1780 0 0 1715 1748 0 0 0 1746 1754 1763 1739 1728 1706 1718 0 0 0 1733 1713 1702 1704 1744 1741 1738 1741 1732 1716 1689 1685 0 0 0 1028 1019 1021 1017 1014 1008 1006 1004 1004 1003 1004 1004 1004 1004 1005 1006 1006 1006 1005 1006 1006 1006 1005 1005 1005 1006 1006 1005 1005 1006 1008 1008 1010 1009 1010 1009 1009 1007 1008 1007 1008 1008 1008 1008 1009 1011 1011 1010 1008 1008 1009 1010 1011 1011 1011 1007 1007 1006 1009 1008 1008 1007 1008 1012 1032 1065 1104 1124 1140 1153 1161 1164 1167 1169 1175 1179 1184 1187 1190 1192 1193 1195 1194 1191 1189 1190 1191 1192 1195 1197 1197 1195 1194 1196 1197 1198 1197 1198 1198 1200 1200 1200 1201 1201 1200 1199 1199 1199 1198 1198 1198 1198 1197 1197 1199 1200 1200 1198 1198 1197 1197 1197 1196 1195 1197 1198 1197 1195 1195 1195 1195 1194 1193 1193 1193 1193 1194 1194 1194 1192 1193 1193 1193 1195 1194 1195 1193 1194 1194 1194 1193 1193 1193 1193 1192 1191 1192 1191 1192 1192 1192 1193 1192 1190 1189 1187 1189 1189 1191 1190 1191 1190 1191 1190 1190 1188 1189 1189 1191 1190 1191 1191 1192 1191 1190 1191 1191 1190 1189 1190 1191 1191 1190 1189 1189 1191 1191 1190 1189 1190 1192 1191 1190 1189 1190 1190 1190 1189 1190 1191 1190 1190 1189 1190 1189 1190 1190 1192 1192 1190 1189 1188 1188 1190 1191 1191 1190 1190 1190 1190 1190 1189 1188 1187 1188 1189 1190 1190 1190 1191 1192 1191 1190 1189 1189 1190 1189 1188 1187 1187 1188 1189 1190 1192 1192 1192 1192 1191 1191 1189 1191 1191 1191 1190 1190 1191 1191 1191 1191 1191 1191 1191 1189 1188 1189 1190 1190 1190 1189 1189 1189 1190 1191 1191 1192 1192 1191 1190 1190 1191 1191 1191 1190 1192 1191 1192 1192 1192 1192 1193 1194 1193 1193 1194 1193 1193 1191 1192 1193 1194 1193 1193 1191 1191 1191 1193 1193 1193 1193 1193 1193 1194 1194 1193 1191 1192 1193 1194 1194 1195 1194 1194 1193 1194 1195 1197 1196 1195 1194 1195 1196 1196 1197 1197 1197 1196 1195 1196 1195 1197 1198 1198 1197 1196 1196 1196 1196 1198 1197 1199 1200 1200 1199 1199 1200 1201 1201 1200 1200 1199 1200 1199 1201 1202 1203 1203 1203 1205 1204 1204 1203 1204 1206 1207 1207 1205 1205 1205 1205 1204 1204 1205 1206 1206 1206 1207 1206 1205 1205 1204 1204 1204 1205 1204 1203 1202 1200 1199 1201 1206 1209 1208 1207 1206 1204 1202 1199 1197 1195 1192 1189 1185 1181 1178 1177 1175 1173 1170 1166 1161 1156 1151 1149 1145 1143 1139 1136 1133 1129 1105 1062 1034 1024 1020 1018 1019 1022 0 0 0 1746 1745 1737 1731 1738 1729 1745 1741 1719 1734 1747 1748 1741 1729 1716 0
    0 0 0 0 0 0 0 1692 0 0 0 0 0 1775 1781 1742 0 1739 0 1771 0 1732 1752 1765 1772 1733 1713 1697 0 0 1726 1719 1729 1718 1693 1706 1722 1729 1726 1727 1724 1724 0 0 0 0 1017 1015 1018 1021 1014 1008 1007 1005 1005 1004 1005 1004 1004 1005 1005 1006 1006 1006 1006 1006 1006 1006 1006 1005 1006 1006 1007 1006 1007 1007 1008 1007 1008 1008 1008 1007 1008 1008 1009 1009 1009 1009 1008 1007 1008 1010 1010 1010 1009 1009 1010 1011 1011 1010 1010 1008 1006 1006 1009 1009 1009 1007 1008 1012 1031 1065 1103 1124 1140 1153 1161 1164 1166 1168 1174 1178 1183 1186 1190 1192 1194 1196 1194 1191 1189 1189 1191 1192 1195 1197 1197 1195 1194 1195 1197 1198 1197 1197 1198 1200 1200 1200 1200 1200 1200 1199 1199 1199 1198 1199 1198 1197 1196 1196 1198 1198 1197 1196 1196 1196 1197 1198 1196 1195 1196 1197 1197 1196 1197 1196 1195 1194 1194 1193 1193 1193 1193 1194 1194 1194 1193 1193 1193 1195 1193 1194 1192 1193 1193 1192 1191 1191 1192 1193 1191 1191 1191 1191 1190 1191 1191 1192 1191 1191 1190 1189 1191 1190 1191 1189 1191 1191 1191 1190 1190 1190 1190 1191 1192 1191 1191 1190 1191 1191 1190 1191 1189 1189 1189 1190 1190 1188 1188 1188 1189 1191 1191 1190 1188 1189 1191 1191 1191 1190 1190 1190 1190 1189 1190 1190 1189 1187 1188 1189 1189 1189 1190 1190 1191 1189 1189 1188 1190 1191 1192 1190 1189 1189 1188 1188 1188 1188 1188 1188 1188 1187 1189 1189 1191 1192 1193 1191 1190 1190 1191 1190 1189 1188 1188 1188 1188 1189 1191 1192 1191 1190 1190 1190 1190 1190 1192 1191 1191 1190 1191 1191 1191 1190 1189 1189 1190 1190 1188 1188 1189 1191 1191 1191 1190 1188 1189 1189 1188 1189 1190 1191 1190 1190 1190 1191 1191 1191 1190 1191 1191 1191 1191 1191 1192 1193 1194 1191 1190 1191 1192 1191 1190 1191 1192 1193 1192 1192 1190 1191 1191 1192 1192 1192 1192 1191 1192 1192 1193 1192 1193 1193 1194 1193 1194 1194 1194 1193 1193 1193 1193 1194 1195 1194 1194 1194 1196 1196 1198 1197 1197 1196 1195 1196 1195 1198 1198 1198 1197 1197 1197 1197 1197 1199 1198 1199 1199 1200 1199 1199 1201 1201 1201 1199 1200 1198 1199 1198 1200 1201 1202 1203 1202 1203 1202 1203 1202 1202 1204 1205 1206 1205 1205 1204 1204 1203 1204 1204 1205 1205 1206 1207 1207 1205 1206 1205 1205 1205 1204 1203 1202 1201 1199 1199 1202 1207 1210 1209 1207 1206 1204 1201 1198 1196 1193 1192 1190 1186 1181 1177 1176 1174 1172 1169 1165 1160 1156 1153 1150 1147 1143 1140 1136 1132 1127 1103 1062 1033 1025 1020 1020 1020 1022 0 0 0 1746 1752 1739 1733 1739 1779 1757 1743 1727 1736 1742 1749 1736 1719 1715 0
    0 0 0 0 0 0 0 0 0 0 0 1783 0 1744 0 1796 1775 1761 1772 1837 0 0 0 1738 1743 1760 1742 1723 1734 1735 1711 1722 1737 1743 1706 1705 1708 1722 1713 1725 1723 1718 1714 0 0 0 1024 1001 1013 1024 1015 1007 1006 1005 1005 1005 1004 1004 1003 1005 1006 1007 1006 1007 1006 1006 1006 1006 1007 1006 1007 1006 1005 1005 1006 1007 1008 1008 1007 1006 1006 1007 1009 1009 1009 1009 1009 1009 1008 1008 1009 1009 1009 1008 1008 1009 1009 1011 1012 1012 1010 1008 1007 1008 1009 1009 1009 1008 1009 1014 1034 1067 1105 1124 1139 1151 1158 1163 1166 1169 1174 1178 1183 1186 1190 1192 1195 1196 1194 1189 1188 1188 1191 1191 1194 1196 1198 1198 1197 1196 1197 1197 1197 1197 1197 1199 1201 1201 1200 1199 1198 1199 1198 1200 1199 1199 1199 1198 1198 1197 1197 1196 1196 1196 1195 1196 1198 1199 1198 1196 1196 1196 1196 1196 1197 1196 1195 1193 1193 1194 1193 1193 1192 1193 1193 1194 1193 1194 1194 1193 1191 1192 1191 1191 1192 1193 1193 1192 1193 1194 1192 1191 1190 1190 1189 1190 1190 1191 1192 1192 1191 1191 1192 1191 1190 1188 1190 1191 1191 1191 1191 1190 1191 1192 1193 1192 1192 1192 1191 1191 1190 1191 1188 1189 1188 1191 1190 1189 1188 1188 1188 1190 1190 1191 1190 1190 1191 1192 1192 1191 1191 1191 1192 1191 1190 1189 1189 1188 1188 1188 1189 1189 1189 1190 1190 1189 1189 1188 1190 1189 1191 1189 1190 1189 1189 1190 1190 1190 1189 1188 1188 1188 1189 1190 1192 1193 1193 1190 1190 1190 1190 1189 1189 1189 1190 1190 1190 1190 1191 1191 1192 1192 1191 1191 1189 1190 1192 1192 1191 1190 1189 1190 1190 1189 1188 1186 1188 1190 1190 1190 1190 1192 1193 1192 1191 1189 1190 1190 1189 1189 1190 1192 1191 1191 1189 1191 1191 1191 1191 1191 1191 1191 1192 1191 1192 1193 1194 1192 1191 1192 1193 1193 1191 1193 1192 1193 1192 1191 1191 1192 1193 1193 1191 1191 1192 1193 1194 1193 1193 1192 1193 1193 1195 1194 1194 1195 1194 1194 1193 1193 1194 1194 1195 1194 1194 1196 1196 1196 1196 1197 1197 1197 1197 1197 1196 1198 1198 1198 1198 1198 1197 1198 1198 1200 1199 1199 1199 1200 1200 1200 1200 1200 1201 1200 1201 1200 1200 1200 1201 1203 1203 1204 1202 1202 1201 1203 1204 1204 1204 1204 1206 1206 1206 1205 1205 1204 1205 1204 1204 1204 1206 1207 1207 1206 1206 1207 1206 1205 1203 1203 1203 1202 1201 1200 1203 1208 1210 1209 1208 1207 1204 1202 1198 1196 1193 1191 1189 1187 1182 1179 1176 1174 1172 1169 1165 1161 1157 1154 1151 1147 1143 1139 1137 1133 1128 1104 1064 1034 1025 1022 1021 1023 1028 0 0 0 1752 1747 1738 1736 1744 1758 1757 1752 1742 1736 1745 1745 1746 1732 1731 0
    0 0 0 0 0 0 1752 0 0 0 0 0 1776 1769 0 0 1744 1699 0 1822 1813 1672 1701 1725 1743 1741 1772 1754 1733 1730 1721 1727 1727 1741 1741 1691 1699 1700 1736 1716 1731 1725 1694 1685 0 0 1002 1003 1014 1023 1014 1006 1005 1005 1006 1006 1005 1004 1004 1005 1005 1005 1005 1006 1006 1007 1006 1007 1008 1008 1009 1008 1006 1006 1006 1007 1007 1008 1007 1007 1006 1008 1009 1010 1010 1011 1010 1010 1008 1008 1010 1009 1008 1008 1009 1009 1009 1010 1010 1011 1009 1009 1008 1010 1011 1009 1009 1009 1010 1016 1035 1068 1105 1124 1139 1149 1156 1161 1165 1169 1174 1179 1183 1186 1189 1192 1196 1197 1194 1188 1186 1186 1189 1191 1194 1195 1198 1197 1197 1195 1196 1196 1197 1198 1199 1199 1200 1199 1198 1198 1197 1198 1197 1198 1198 1199 1199 1198 1198 1197 1198 1196 1196 1195 1195 1196 1197 1199 1199 1197 1196 1195 1195 1195 1196 1195 1195 1194 1195 1195 1194 1194 1192 1193 1192 1193 1193 1194 1194 1194 1193 1191 1191 1191 1192 1193 1193 1193 1194 1194 1192 1191 1191 1191 1191 1190 1190 1190 1190 1191 1192 1193 1191 1191 1190 1190 1191 1191 1191 1191 1191 1191 1191 1192 1192 1191 1192 1191 1190 1189 1190 1190 1188 1188 1188 1190 1189 1188 1187 1188 1188 1189 1189 1190 1189 1189 1190 1190 1189 1188 1189 1190 1190 1189 1188 1188 1189 1188 1188 1187 1189 1188 1189 1188 1188 1187 1189 1189 1190 1189 1190 1189 1189 1189 1189 1190 1190 1190 1189 1189 1189 1190 1190 1190 1191 1191 1192 1191 1191 1191 1191 1190 1190 1190 1189 1189 1189 1189 1190 1191 1191 1192 1191 1190 1189 1190 1190 1191 1190 1189 1189 1190 1190 1190 1188 1186 1188 1190 1190 1190 1191 1192 1194 1191 1192 1190 1190 1190 1189 1189 1189 1191 1190 1190 1188 1189 1189 1190 1191 1190 1191 1190 1192 1191 1192 1192 1192 1190 1190 1191 1192 1193 1192 1192 1191 1191 1190 1190 1190 1191 1192 1192 1191 1190 1192 1192 1193 1192 1193 1193 1194 1193 1194 1193 1194 1193 1192 1191 1192 1194 1194 1195 1195 1195 1194 1196 1196 1195 1195 1194 1196 1196 1197 1196 1197 1197 1198 1197 1197 1197 1197 1197 1199 1199 1199 1198 1198 1200 1200 1201 1201 1200 1200 1199 1200 1201 1200 1201 1201 1203 1203 1204 1202 1201 1202 1203 1204 1202 1203 1203 1205 1204 1205 1204 1205 1204 1204 1204 1204 1204 1206 1207 1206 1205 1205 1205 1204 1203 1201 1202 1202 1201 1199 1199 1203 1209 1211 1211 1209 1206 1202 1200 1198 1196 1193 1191 1189 1186 1183 1178 1176 1173 1172 1168 1165 1161 1158 1154 1150 1146 1142 1139 1137 1133 1127 1104 1063 1033 1023 1021 1022 1023 1026 0 0 0 1748 1718 1713 1733 1753 1743 1745 1761 1735 1736 1739 1746 1751 1751 1752 0
    0 0 0 0 0 1764 0 0 0 0 0 0 1775 1787 0 0 0 0 0 1802 1749 1739 1776 1743 0 0 1738 1741 1737 1733 1744 1738 1739 1734 1727 1715 1709 1723 1718 1749 1743 1732 1713 1681 0 0 989 1007 1016 1019 1013 1007 1006 1006 1006 1006 1005 1005 1005 1005 1005 1005 1005 1006 1006 1005 1005 1008 1008 1007 1008 1007 1007 1005 1004 1005 1006 1007 1006 1008 1008 1010 1009 1010 1010 1010 1010 1009 1009 1009 1010 1010 1010 1008 1010 1009 1009 1009 1011 1011 1010 1010 1011 1011 1011 1010 1010 1011 1011 1016 1035 1069 1107 1126 1139 1148 1155 1161 1166 1171 1174 1179 1182 1186 1189 1193 1196 1197 1195 1189 1187 1186 1188 1190 1194 1196 1198 1197 1198 1196 1197 1196 1198 1198 1200 1200 1201 1200 1200 1200 1201 1201 1199 1198 1198 1199 1199 1198 1199 1198 1199 1198 1198 1197 1196 1197 1197 1198 1198 1198 1197 1195 1195 1194 1194 1195 1195 1194 1194 1194 1193 1193 1192 1194 1194 1194 1194 1194 1194 1194 1193 1193 1192 1191 1191 1192 1194 1194 1193 1192 1191 1191 1192 1192 1193 1192 1191 1190 1191 1191 1191 1191 1190 1191 1190 1191 1191 1191 1190 1190 1191 1191 1191 1192 1192 1192 1192 1192 1191 1189 1190 1190 1188 1188 1189 1191 1192 1191 1189 1189 1188 1190 1189 1190 1189 1190 1190 1191 1189 1188 1188 1189 1189 1188 1188 1188 1190 1189 1190 1188 1188 1188 1188 1190 1189 1188 1189 1189 1189 1188 1189 1189 1189 1190 1189 1190 1190 1191 1190 1189 1189 1190 1191 1191 1191 1191 1191 1191 1191 1191 1191 1191 1191 1190 1189 1189 1189 1189 1189 1189 1190 1192 1192 1191 1189 1190 1191 1190 1190 1189 1190 1190 1189 1189 1187 1187 1188 1190 1190 1190 1192 1192 1192 1190 1191 1190 1190 1191 1190 1190 1190 1191 1191 1191 1189 1190 1190 1192 1191 1190 1190 1190 1192 1191 1191 1191 1192 1193 1193 1194 1192 1194 1193 1193 1192 1191 1190 1190 1191 1192 1193 1192 1191 1191 1192 1192 1192 1193 1193 1195 1195 1195 1194 1193 1192 1192 1191 1192 1193 1194 1194 1196 1196 1196 1195 1195 1195 1195 1194 1195 1196 1196 1197 1197 1197 1197 1196 1197 1197 1197 1197 1197 1198 1199 1199 1199 1199 1201 1200 1201 1201 1202 1201 1200 1201 1202 1201 1201 1200 1202 1203 1204 1203 1202 1203 1203 1204 1203 1204 1204 1205 1205 1206 1206 1206 1205 1205 1205 1205 1205 1206 1206 1205 1205 1204 1205 1203 1202 1201 1202 1203 1201 1200 1200 1204 1209 1212 1212 1210 1208 1204 1203 1200 1197 1193 1191 1188 1186 1183 1180 1177 1174 1172 1169 1166 1163 1159 1154 1149 1146 1143 1140 1138 1135 1129 1104 1063 1033 1023 1021 1021 1023 1022 0 0 0 1726 1711 1717 1740 1757 1768 1763 1761 1716 1722 1739 1754 1745 1745 1754 0
    0 0 0 0 0 1768 0 0 0 0 0 0 1742 0 0 0 0 0 0 1752 0 0 1744 1743 1737 1720 1722 1727 1733 1729 1733 1782 1757 1738 1727 1721 1733 1722 1729 1727 1742 1739 1704 1722 0 0 1015 1005 1013 1011 1010 1008 1006 1006 1007 1005 1005 1004 1005 1005 1005 1004 1004 1005 1006 1005 1006 1007 1008 1007 1007 1007 1007 1006 1005 1005 1006 1008 1007 1009 1009 1010 1009 1010 1010 1010 1010 1010 1010 1009 1010 1010 1010 1010 1010 1008 1009 1009 1010 1009 1009 1011 1010 1010 1010 1011 1011 1011 1010 1015 1035 1068 1106 1125 1139 1148 1155 1160 1165 1169 1172 1177 1181 1185 1188 1193 1196 1197 1194 1190 1187 1186 1187 1189 1193 1195 1197 1195 1196 1195 1197 1196 1197 1197 1199 1199 1199 1198 1199 1200 1202 1202 1201 1198 1198 1197 1199 1198 1199 1198 1199 1199 1198 1197 1197 1197 1198 1198 1198 1198 1197 1194 1194 1194 1195 1195 1195 1194 1193 1194 1194 1193 1192 1193 1194 1195 1195 1194 1194 1193 1193 1193 1192 1191 1191 1191 1193 1193 1191 1191 1191 1192 1192 1192 1193 1192 1192 1189 1191 1190 1191 1190 1189 1191 1191 1190 1190 1189 1189 1189 1190 1191 1190 1190 1191 1191 1191 1191 1190 1189 1190 1189 1189 1188 1189 1190 1192 1192 1191 1191 1190 1191 1189 1189 1188 1189 1189 1189 1187 1187 1186 1187 1187 1187 1188 1189 1190 1189 1191 1190 1189 1189 1190 1191 1189 1188 1189 1190 1191 1190 1190 1189 1189 1189 1189 1189 1188 1190 1190 1190 1189 1189 1190 1190 1189 1189 1189 1191 1192 1192 1192 1191 1191 1189 1189 1189 1190 1190 1189 1189 1190 1191 1192 1191 1189 1189 1190 1189 1189 1189 1191 1192 1191 1190 1188 1188 1189 1191 1190 1191 1191 1191 1191 1190 1192 1191 1190 1190 1189 1188 1189 1190 1190 1190 1190 1190 1190 1190 1190 1190 1191 1191 1191 1191 1192 1191 1191 1190 1192 1192 1192 1193 1192 1192 1192 1192 1192 1191 1192 1191 1192 1191 1191 1191 1191 1191 1191 1191 1192 1193 1194 1194 1193 1193 1193 1192 1192 1192 1193 1194 1193 1195 1196 1196 1195 1195 1195 1194 1195 1196 1196 1195 1196 1196 1196 1196 1196 1196 1197 1196 1197 1196 1198 1198 1199 1199 1199 1200 1200 1200 1201 1201 1201 1199 1200 1200 1200 1199 1200 1200 1202 1204 1204 1203 1202 1202 1202 1202 1204 1204 1204 1204 1204 1205 1205 1205 1204 1204 1204 1206 1206 1205 1203 1203 1204 1204 1203 1201 1200 1202 1201 1200 1199 1200 1204 1208 1211 1211 1210 1208 1205 1202 1201 1197 1193 1190 1187 1185 1182 1178 1176 1173 1171 1168 1165 1162 1158 1153 1150 1146 1143 1141 1138 1135 1128 1103 1063 1032 1022 1019 1020 1021 1018 0 0 0 0 1722 1734 1750 1760 1777 1777 1753 1717 1717 1750 1745 1747 1740 1742 0
    0 0 0 0 1774 1735 0 0 0 0 0 0 1758 0 0 0 0 0 0 1794 0 0 1714 1733 1736 1718 1716 1731 1730 1722 1723 1742 1761 1755 1733 1727 1716 1722 1727 1729 1734 1762 0 0 0 0 1002 1008 1005 1012 1011 1008 1005 1005 1006 1005 1005 1005 1005 1005 1004 1004 1005 1005 1007 1006 1007 1007 1008 1006 1007 1007 1008 1007 1006 1005 1006 1008 1007 1008 1009 1009 1008 1009 1010 1010 1009 1009 1010 1009 1010 1009 1010 1009 1009 1007 1009 1009 1010 1009 1009 1010 1009 1010 1009 1010 1010 1011 1010 1015 1034 1067 1105 1125 1140 1149 1156 1161 1166 1170 1173 1177 1180 1185 1188 1192 1194 1197 1195 1191 1188 1187 1189 1190 1192 1194 1196 1196 1195 1195 1196 1196 1197 1196 1197 1198 1199 1199 1200 1200 1203 1202 1201 1197 1198 1199 1200 1199 1199 1198 1198 1198 1198 1198 1198 1198 1198 1197 1198 1199 1198 1196 1195 1194 1195 1196 1195 1194 1193 1194 1193 1192 1191 1194 1195 1195 1195 1193 1193 1192 1193 1193 1192 1191 1191 1192 1192 1191 1191 1191 1192 1192 1192 1191 1191 1191 1191 1190 1190 1191 1191 1189 1188 1189 1190 1190 1190 1189 1189 1189 1189 1189 1190 1190 1192 1192 1192 1191 1191 1190 1191 1191 1191 1188 1189 1189 1192 1191 1193 1192 1192 1190 1188 1188 1188 1190 1190 1190 1188 1189 1189 1189 1189 1189 1191 1191 1191 1190 1192 1191 1190 1188 1188 1190 1190 1189 1189 1188 1188 1188 1189 1189 1189 1190 1189 1189 1188 1191 1191 1191 1189 1188 1188 1190 1189 1190 1189 1191 1191 1192 1192 1191 1190 1190 1191 1192 1191 1191 1190 1190 1190 1191 1192 1190 1189 1189 1191 1190 1189 1189 1190 1192 1191 1189 1188 1188 1189 1191 1190 1191 1191 1191 1191 1191 1191 1190 1190 1190 1189 1189 1189 1190 1191 1191 1191 1191 1191 1191 1190 1191 1191 1191 1191 1192 1193 1193 1192 1191 1193 1193 1192 1191 1191 1192 1192 1192 1192 1192 1193 1193 1193 1192 1192 1192 1191 1191 1191 1191 1191 1193 1194 1195 1194 1194 1193 1192 1192 1194 1194 1194 1192 1193 1193 1195 1195 1195 1194 1195 1196 1196 1195 1195 1195 1196 1196 1196 1195 1196 1196 1196 1197 1196 1198 1198 1198 1198 1199 1200 1199 1200 1200 1200 1200 1198 1199 1199 1200 1199 1199 1201 1201 1204 1204 1204 1203 1202 1202 1202 1204 1205 1204 1204 1204 1207 1206 1206 1204 1203 1203 1204 1204 1203 1202 1202 1204 1204 1203 1202 1202 1203 1202 1202 1200 1200 1203 1207 1210 1209 1209 1208 1206 1203 1200 1197 1193 1191 1188 1185 1182 1179 1176 1173 1170 1168 1165 1162 1158 1153 1150 1146 1145 1142 1139 1136 1129 1103 1061 1033 1022 1020 1020 1021 1025 0 0 0 0 1735 1746 1762 1753 1750 1763 1761 1731 1729 1750 1748 1726 1740 1696 0
    0 0 0 0 0 1745 0 0 0 0 0 0 1763 0 0 0 0 0 0 1788 1772 1753 0 1674 1694 1705 1713 1724 1752 1724 1720 1719 1736 1733 1726 1716 1715 1718 1724 1726 1721 1713 0 0 0 0 1016 1008 1009 1015 1011 1006 1004 1005 1006 1005 1004 1004 1005 1005 1005 1005 1005 1005 1006 1006 1007 1006 1006 1006 1006 1006 1007 1007 1007 1007 1007 1007 1007 1007 1008 1007 1007 1009 1009 1009 1008 1008 1008 1009 1009 1008 1008 1008 1009 1008 1008 1009 1010 1010 1009 1009 1008 1009 1009 1010 1010 1010 1010 1014 1034 1067 1105 1124 1138 1148 1154 1160 1165 1169 1173 1177 1181 1185 1188 1192 1194 1196 1193 1189 1186 1188 1190 1191 1192 1192 1194 1195 1195 1194 1196 1197 1198 1195 1196 1196 1198 1197 1198 1198 1199 1199 1199 1197 1198 1199 1200 1200 1198 1197 1196 1196 1197 1198 1199 1198 1198 1196 1197 1198 1198 1196 1196 1196 1196 1195 1194 1194 1194 1196 1195 1193 1192 1193 1194 1194 1194 1194 1194 1193 1193 1193 1192 1192 1193 1194 1193 1192 1191 1192 1192 1193 1192 1192 1192 1191 1190 1189 1190 1191 1190 1189 1189 1189 1189 1189 1190 1189 1190 1188 1190 1189 1190 1189 1190 1189 1190 1189 1190 1189 1190 1189 1190 1188 1188 1187 1190 1191 1192 1192 1192 1191 1189 1188 1189 1190 1190 1189 1189 1189 1189 1189 1190 1189 1190 1190 1191 1191 1191 1190 1188 1187 1188 1189 1190 1189 1190 1188 1189 1188 1188 1187 1188 1189 1189 1189 1189 1190 1190 1191 1190 1189 1188 1189 1189 1189 1189 1190 1190 1191 1190 1190 1190 1189 1190 1190 1189 1189 1189 1190 1190 1189 1190 1189 1189 1189 1191 1190 1189 1188 1190 1190 1190 1189 1189 1189 1190 1191 1191 1191 1190 1191 1191 1191 1191 1190 1191 1190 1189 1189 1190 1191 1191 1191 1192 1190 1190 1190 1191 1191 1191 1190 1190 1192 1192 1192 1191 1191 1192 1192 1192 1191 1192 1192 1192 1192 1192 1192 1192 1191 1192 1193 1193 1192 1191 1190 1191 1190 1191 1191 1193 1193 1193 1193 1194 1193 1193 1193 1194 1194 1193 1193 1192 1195 1195 1195 1194 1194 1196 1195 1195 1194 1195 1195 1196 1196 1196 1195 1195 1196 1196 1197 1199 1198 1199 1197 1198 1197 1197 1198 1200 1200 1199 1197 1197 1197 1198 1198 1200 1202 1202 1203 1204 1205 1204 1203 1203 1203 1203 1204 1203 1203 1203 1206 1206 1205 1203 1202 1204 1204 1203 1203 1202 1202 1204 1203 1202 1200 1201 1201 1201 1201 1199 1199 1202 1207 1211 1209 1208 1207 1205 1202 1198 1196 1193 1192 1189 1186 1181 1177 1174 1172 1169 1167 1164 1160 1158 1154 1151 1146 1143 1139 1138 1135 1128 1101 1061 1033 1023 1020 1020 1021 1025 0 0 0 0 0 1739 1745 1729 1736 1741 1754 1745 1752 1750 1753 1749 1720 1718 0
    0 0 0 0 0 1706 0 0 0 0 0 1743 0 0 0 0 1786 1711 1705 1755 1774 1757 0 1690 1713 1740 1744 1719 1757 1732 1728 1729 1729 1720 1718 1718 1724 1731 1743 1731 1727 1720 1699 0 0 0 1028 1024 1021 1027 1011 1005 1004 1006 1006 1005 1003 1004 1005 1006 1005 1005 1006 1006 1006 1006 1007 1007 1005 1004 1005 1006 1006 1006 1005 1007 1007 1006 1005 1005 1006 1006 1007 1009 1009 1009 1007 1008 1007 1008 1008 1009 1008 1007 1009 1008 1009 1010 1010 1012 1010 1009 1008 1009 1010 1009 1009 1010 1010 1014 1033 1067 1104 1124 1140 1150 1156 1161 1167 1172 1176 1179 1181 1186 1189 1192 1193 1195 1192 1189 1187 1189 1192 1192 1193 1192 1194 1194 1194 1195 1197 1198 1198 1196 1196 1197 1199 1198 1197 1197 1199 1199 1198 1197 1197 1199 1199 1199 1197 1196 1196 1196 1197 1198 1198 1197 1196 1195 1196 1196 1197 1195 1196 1195 1195 1195 1195 1196 1195 1195 1194 1194 1194 1195 1195 1194 1193 1193 1193 1193 1193 1193 1193 1193 1194 1194 1193 1193 1192 1193 1193 1193 1193 1192 1192 1190 1190 1190 1192 1191 1191 1191 1190 1190 1189 1190 1191 1190 1190 1189 1190 1189 1190 1191 1191 1190 1191 1189 1190 1190 1191 1190 1190 1190 1189 1189 1190 1191 1191 1192 1192 1192 1189 1189 1189 1190 1190 1190 1190 1190 1190 1190 1190 1189 1190 1190 1191 1190 1191 1190 1189 1187 1187 1188 1189 1188 1188 1188 1187 1186 1186 1187 1188 1189 1188 1189 1189 1191 1191 1192 1191 1190 1189 1190 1190 1191 1190 1190 1189 1189 1189 1190 1190 1190 1189 1191 1189 1189 1189 1190 1189 1188 1189 1189 1189 1189 1190 1190 1188 1188 1188 1187 1188 1189 1190 1191 1191 1191 1190 1190 1190 1191 1191 1190 1190 1189 1191 1191 1191 1191 1190 1190 1191 1192 1191 1190 1190 1192 1192 1192 1191 1191 1191 1192 1191 1192 1192 1193 1192 1192 1192 1191 1191 1191 1191 1191 1191 1191 1191 1192 1193 1193 1193 1193 1192 1191 1191 1192 1193 1193 1194 1192 1193 1193 1194 1193 1192 1192 1193 1195 1193 1193 1192 1195 1196 1195 1194 1194 1195 1195 1194 1194 1196 1194 1195 1194 1195 1195 1195 1196 1197 1198 1199 1198 1198 1198 1199 1198 1198 1199 1201 1200 1200 1198 1198 1198 1199 1199 1201 1203 1203 1203 1204 1204 1205 1204 1204 1203 1204 1205 1204 1203 1204 1206 1207 1206 1204 1204 1206 1206 1204 1204 1204 1204 1204 1204 1203 1202 1202 1201 1201 1201 1199 1199 1203 1209 1212 1211 1209 1207 1205 1203 1198 1196 1193 1192 1189 1186 1182 1178 1175 1172 1170 1168 1164 1161 1158 1154 1150 1145 1142 1139 1137 1134 1127 1101 1062 1033 1023 1021 1021 1021 1020 0 0 0 0 1738 1739 1731 1718 1726 1727 1741 1743 1750 1757 1740 1754 1756 1738 0
    0 0 0 0 0 0 1730 0 0 0 0 0 1722 0 0 0 0 1798 1726 1734 1728 1713 1703 1702 1739 1749 1732 1738 1747 1735 1725 1732 1728 1717 1717 1725 1735 1738 1751 1749 1738 1724 1713 0 0 0 1031 1029 1030 1029 1011 1004 1004 1005 1005 1005 1004 1005 1005 1005 1006 1005 1006 1005 1006 1006 1007 1007 1005 1004 1005 1006 1006 1006 1005 1006 1006 1005 1005 1004 1006 1006 1008 1008 1007 1007 1007 1009 1008 1009 1007 1008 1007 1007 1007 1008 1010 1011 1011 1011 1010 1009 1008 1008 1009 1009 1011 1010 1010 1015 1034 1067 1103 1125 1140 1150 1156 1161 1167 1173 1177 1179 1182 1185 1189 1193 1195 1195 1192 1189 1187 1189 1192 1194 1193 1193 1192 1193 1193 1196 1198 1199 1199 1198 1199 1198 1197 1195 1196 1196 1199 1198 1198 1198 1197 1198 1198 1197 1196 1195 1197 1196 1197 1197 1197 1195 1195 1194 1195 1195 1195 1195 1195 1195 1195 1195 1195 1195 1195 1195 1195 1194 1195 1195 1195 1194 1193 1194 1194 1194 1194 1193 1193 1193 1194 1194 1193 1193 1192 1193 1192 1193 1192 1193 1193 1191 1190 1190 1192 1191 1191 1190 1190 1190 1189 1189 1190 1189 1190 1191 1191 1189 1189 1188 1189 1189 1189 1188 1190 1189 1189 1188 1189 1191 1191 1189 1188 1189 1191 1191 1191 1192 1191 1190 1189 1189 1190 1191 1190 1189 1190 1189 1189 1188 1189 1189 1190 1190 1191 1190 1189 1188 1189 1189 1190 1190 1190 1190 1189 1188 1188 1188 1189 1189 1189 1188 1188 1189 1190 1191 1190 1190 1189 1189 1190 1191 1190 1189 1187 1187 1189 1189 1190 1189 1188 1189 1189 1189 1188 1188 1189 1189 1191 1191 1189 1189 1189 1189 1189 1189 1189 1188 1188 1189 1190 1190 1191 1190 1191 1191 1192 1191 1191 1189 1190 1190 1191 1190 1190 1189 1189 1189 1191 1191 1192 1191 1192 1192 1192 1191 1191 1191 1191 1192 1192 1191 1191 1191 1190 1190 1191 1192 1191 1191 1191 1191 1192 1191 1191 1191 1192 1192 1193 1191 1192 1191 1192 1192 1194 1193 1194 1192 1193 1193 1194 1192 1191 1192 1193 1193 1192 1192 1192 1194 1196 1195 1194 1193 1194 1195 1195 1195 1196 1195 1195 1193 1195 1195 1195 1195 1197 1198 1199 1197 1198 1198 1198 1198 1199 1200 1201 1202 1201 1201 1199 1198 1198 1199 1201 1203 1202 1202 1203 1204 1204 1204 1205 1205 1205 1205 1203 1202 1203 1205 1206 1205 1204 1204 1206 1206 1206 1205 1204 1203 1203 1202 1202 1201 1202 1201 1200 1199 1198 1199 1203 1210 1212 1211 1209 1207 1204 1202 1199 1196 1192 1191 1188 1185 1181 1177 1174 1172 1170 1168 1165 1160 1157 1155 1153 1148 1143 1139 1137 1134 1126 1101 1061 1032 1023 1021 1021 1020 1020 0 0 0 0 0 1738 1740 1732 1725 1731 1736 1735 1742 1734 1733 1750 1761 1761 0
    0 0 0 0 0 0 0 0 0 0 0 0 1761 0 0 0 0 1716 1715 1752 0 1734 0 1736 1744 1749 1742 1732 1733 1717 1692 1722 1735 1730 1734 1733 1726 1726 1728 1737 1737 1734 1729 0 0 0 1015 1030 1025 1023 1012 1006 1005 1005 1005 1005 1005 1006 1005 1005 1006 1005 1006 1006 1006 1006 1007 1007 1006 1005 1005 1006 1006 1006 1006 1006 1006 1005 1005 1005 1008 1007 1008 1007 1007 1007 1009 1010 1009 1009 1008 1008 1008 1008 1008 1009 1010 1011 1011 1010 1009 1008 1009 1009 1008 1008 1009 1009 1009 1014 1033 1066 1103 1125 1139 1150 1156 1162 1169 1174 1178 1180 1181 1185 1188 1192 1194 1196 1194 1192 1190 1192 1193 1194 1193 1194 1194 1195 1194 1196 1197 1197 1197 1198 1198 1198 1197 1196 1197 1197 1199 1198 1200 1199 1199 1198 1198 1198 1197 1196 1199 1199 1198 1197 1197 1196 1196 1195 1196 1196 1196 1195 1195 1195 1195 1195 1196 1196 1195 1194 1194 1194 1195 1196 1196 1195 1194 1194 1193 1193 1192 1193 1194 1194 1194 1192 1191 1192 1193 1193 1192 1192 1192 1192 1192 1191 1190 1190 1192 1191 1191 1190 1190 1189 1189 1189 1188 1189 1190 1191 1191 1189 1189 1189 1190 1190 1191 1190 1191 1190 1190 1189 1190 1191 1192 1191 1189 1188 1191 1191 1192 1191 1190 1190 1190 1191 1191 1191 1190 1189 1189 1188 1189 1189 1190 1189 1190 1190 1191 1191 1190 1191 1190 1190 1189 1190 1190 1190 1190 1188 1188 1189 1190 1190 1190 1189 1189 1189 1190 1191 1191 1189 1188 1188 1190 1192 1191 1189 1186 1187 1188 1190 1190 1190 1190 1191 1190 1191 1190 1188 1188 1190 1193 1192 1190 1189 1188 1189 1190 1190 1189 1189 1189 1190 1190 1190 1190 1190 1190 1191 1192 1192 1191 1190 1191 1191 1191 1190 1190 1190 1190 1190 1191 1192 1192 1191 1191 1192 1191 1191 1192 1192 1192 1192 1193 1193 1192 1191 1190 1189 1190 1192 1191 1192 1192 1193 1192 1192 1192 1191 1192 1193 1194 1193 1193 1193 1192 1192 1193 1193 1194 1193 1193 1193 1194 1193 1192 1193 1193 1193 1192 1192 1193 1194 1195 1195 1194 1194 1194 1195 1195 1196 1196 1196 1195 1194 1195 1195 1196 1196 1197 1198 1198 1198 1197 1198 1198 1199 1199 1200 1200 1202 1202 1202 1201 1201 1200 1201 1202 1204 1203 1203 1203 1204 1204 1204 1205 1205 1205 1205 1204 1204 1204 1206 1207 1207 1206 1206 1206 1206 1206 1206 1205 1204 1203 1203 1203 1203 1202 1202 1201 1200 1199 1200 1203 1209 1211 1211 1209 1207 1204 1202 1199 1196 1192 1190 1187 1185 1182 1178 1176 1173 1172 1170 1166 1161 1158 1155 1153 1148 1144 1139 1137 1133 1125 1098 1058 1028 1021 1020 1020 1018 1018 0 0 0 0 1746 1749 1760 1756 1746 1735 1727 1727 1737 1740 1736 1768 1762 1759 0
    0 0 0 0 0 0 0 0 0 1722 1779 1789 0 0 0 0 1769 1746 1749 1740 1752 1736 1759 0 1781 1742 1728 1727 1717 1705 1707 1711 0 0 1738 1737 1726 1715 1723 1727 1731 1724 1740 0 0 0 1030 1034 1017 1020 1012 1008 1005 1005 1004 1006 1006 1007 1006 1005 1005 1005 1006 1006 1007 1006 1005 1005 1006 1007 1006 1006 1005 1007 1007 1006 1006 1006 1007 1006 1008 1007 1009 1007 1006 1006 1008 1009 1009 1009 1009 1009 1009 1010 1009 1010 1010 1010 1010 1008 1010 1010 1010 1009 1008 1009 1010 1010 1010 1015 1033 1067 1105 1127 1140 1149 1155 1161 1167 1171 1176 1180 1183 1185 1188 1192 1195 1195 1194 1192 1190 1191 1193 1194 1193 1194 1195 1195 1195 1196 1196 1197 1197 1198 1199 1198 1199 1198 1199 1198 1199 1198 1200 1198 1199 1197 1198 1197 1197 1197 1199 1200 1199 1198 1198 1198 1197 1196 1197 1197 1196 1195 1195 1195 1195 1195 1195 1194 1194 1194 1193 1193 1194 1194 1195 1193 1194 1194 1194 1192 1192 1193 1194 1194 1193 1192 1192 1193 1194 1192 1191 1190 1190 1191 1191 1191 1190 1190 1190 1190 1189 1189 1190 1190 1189 1189 1189 1191 1191 1191 1190 1189 1188 1187 1188 1187 1189 1189 1191 1191 1190 1189 1189 1189 1190 1190 1189 1188 1190 1190 1191 1188 1189 1189 1190 1191 1191 1191 1191 1191 1190 1189 1189 1189 1189 1188 1189 1190 1190 1189 1189 1190 1191 1190 1190 1190 1192 1191 1190 1188 1189 1189 1190 1189 1190 1190 1188 1187 1188 1189 1190 1188 1188 1187 1188 1191 1190 1189 1187 1188 1189 1190 1190 1191 1190 1190 1190 1190 1189 1188 1188 1190 1192 1191 1191 1189 1190 1189 1190 1191 1192 1191 1191 1190 1191 1190 1190 1190 1190 1191 1192 1192 1191 1191 1192 1192 1191 1189 1189 1190 1190 1189 1190 1191 1192 1191 1191 1190 1191 1190 1192 1191 1191 1191 1193 1192 1192 1190 1190 1189 1190 1191 1192 1193 1193 1193 1192 1191 1191 1190 1191 1193 1194 1194 1194 1193 1192 1190 1191 1191 1193 1192 1192 1192 1193 1192 1193 1193 1193 1192 1192 1192 1193 1193 1195 1195 1195 1195 1194 1195 1194 1195 1194 1197 1197 1197 1196 1194 1195 1196 1197 1197 1197 1198 1197 1197 1196 1198 1199 1200 1200 1200 1200 1201 1201 1200 1198 1200 1200 1202 1201 1201 1202 1204 1203 1203 1203 1204 1204 1203 1203 1203 1203 1205 1206 1205 1206 1206 1206 1205 1205 1204 1205 1203 1202 1201 1202 1202 1201 1201 1201 1201 1200 1200 1203 1208 1211 1210 1208 1206 1204 1202 1199 1196 1192 1189 1187 1185 1183 1179 1177 1174 1172 1169 1165 1161 1157 1154 1152 1149 1146 1140 1138 1134 1126 1098 1056 1028 1021 1019 1020 1018 1017 0 0 0 1735 1735 1738 1753 1761 1762 1756 1747 1728 1744 1754 1755 1763 1770 1757 0
    0 0 0 0 0 0 0 0 1709 0 0 1802 1771 0 1724 1761 1778 1770 1739 1727 1766 1754 1736 1742 1783 1764 1747 1723 1726 1707 1715 1728 1751 0 1735 1727 1714 1726 1723 1728 1725 1711 1732 0 0 0 1038 1028 1017 1012 1011 1010 1007 1006 1005 1006 1006 1006 1005 1005 1005 1004 1005 1006 1007 1005 1005 1005 1005 1006 1006 1007 1006 1007 1006 1006 1007 1006 1006 1005 1008 1008 1009 1007 1007 1008 1009 1009 1008 1009 1009 1010 1009 1010 1010 1011 1011 1010 1010 1009 1009 1009 1008 1009 1008 1008 1008 1008 1009 1014 1033 1068 1108 1129 1140 1150 1156 1161 1166 1170 1174 1178 1182 1185 1189 1192 1195 1195 1193 1192 1190 1191 1192 1194 1192 1193 1194 1196 1196 1197 1197 1196 1196 1197 1198 1198 1199 1199 1199 1198 1199 1199 1201 1199 1198 1198 1198 1198 1197 1198 1197 1198 1198 1198 1199 1198 1198 1196 1197 1197 1196 1196 1195 1195 1196 1195 1195 1194 1193 1193 1192 1193 1193 1194 1194 1193 1194 1193 1193 1192 1192 1192 1193 1193 1193 1192 1192 1191 1192 1191 1191 1190 1191 1191 1191 1192 1191 1191 1189 1189 1189 1189 1189 1190 1189 1190 1189 1191 1191 1190 1189 1189 1189 1188 1189 1188 1190 1191 1192 1192 1191 1190 1188 1188 1189 1190 1189 1189 1189 1189 1189 1187 1187 1188 1189 1191 1191 1191 1191 1191 1191 1189 1189 1189 1189 1188 1188 1188 1190 1190 1190 1190 1191 1190 1189 1189 1192 1191 1190 1188 1187 1188 1188 1189 1190 1191 1189 1188 1188 1189 1189 1189 1189 1189 1189 1191 1190 1189 1187 1188 1188 1190 1190 1192 1191 1191 1189 1190 1188 1189 1189 1190 1192 1190 1191 1189 1189 1189 1190 1191 1193 1192 1192 1191 1192 1192 1191 1190 1191 1192 1191 1191 1191 1191 1192 1192 1191 1189 1190 1192 1192 1191 1190 1191 1191 1191 1190 1190 1191 1191 1192 1191 1191 1191 1193 1193 1192 1191 1190 1190 1190 1191 1193 1193 1192 1192 1192 1191 1190 1189 1190 1191 1194 1195 1195 1194 1192 1191 1191 1191 1192 1192 1192 1193 1194 1194 1193 1194 1194 1194 1193 1193 1194 1195 1195 1195 1194 1195 1194 1194 1193 1194 1194 1196 1197 1198 1197 1195 1195 1196 1197 1197 1196 1198 1197 1198 1196 1199 1200 1202 1201 1200 1200 1201 1201 1201 1200 1200 1201 1203 1202 1202 1202 1203 1202 1203 1203 1204 1203 1203 1204 1205 1205 1206 1206 1206 1206 1206 1206 1205 1205 1205 1206 1205 1204 1202 1202 1202 1202 1202 1201 1201 1200 1200 1203 1208 1211 1210 1209 1207 1205 1202 1200 1197 1194 1189 1186 1184 1182 1179 1176 1174 1172 1169 1166 1162 1158 1153 1150 1146 1143 1139 1136 1134 1127 1099 1059 1029 1021 1019 1019 1019 1020 0 0 0 1735 1727 1726 1742 1751 1768 1761 1754 1743 1752 1757 1760 1748 1750 1769 0
    0 1306 0 0 0 0 0 0 0 0 0 1765 1740 0 1745 0 1751 1720 1740 1716 1764 0 1712 1740 1776 1772 1755 1750 1721 1716 1690 1728 1751 1751 1735 1710 1704 1720 1734 1711 1726 1712 1701 0 0 1022 1024 1027 1017 1015 1011 1009 1007 1006 1005 1006 1005 1005 1004 1004 1004 1004 1004 1005 1006 1006 1006 1005 1005 1006 1005 1006 1005 1006 1005 1005 1007 1007 1007 1005 1007 1008 1009 1007 1007 1008 1008 1008 1008 1008 1008 1008 1008 1009 1010 1011 1010 1009 1008 1008 1009 1010 1008 1007 1007 1008 1009 1009 1010 1016 1036 1070 1109 1128 1140 1149 1155 1160 1163 1167 1173 1178 1183 1186 1190 1192 1193 1194 1193 1190 1188 1189 1191 1193 1192 1193 1194 1195 1196 1197 1198 1197 1197 1197 1198 1198 1199 1198 1197 1196 1197 1199 1199 1199 1198 1198 1198 1198 1197 1198 1196 1197 1197 1198 1199 1198 1197 1196 1196 1197 1195 1196 1195 1195 1195 1195 1194 1193 1193 1194 1193 1192 1192 1193 1193 1193 1193 1192 1194 1194 1194 1193 1192 1192 1192 1192 1192 1192 1193 1192 1191 1191 1190 1191 1191 1193 1192 1191 1188 1188 1188 1190 1190 1191 1190 1190 1190 1191 1191 1191 1191 1190 1190 1188 1188 1187 1188 1189 1190 1190 1189 1190 1189 1188 1188 1189 1189 1189 1189 1188 1188 1188 1188 1188 1189 1190 1190 1190 1191 1191 1192 1190 1189 1189 1189 1188 1188 1188 1189 1189 1190 1189 1191 1190 1190 1189 1192 1192 1191 1188 1187 1188 1188 1189 1190 1191 1190 1189 1189 1190 1190 1189 1189 1189 1190 1190 1190 1188 1188 1188 1189 1190 1190 1190 1189 1190 1189 1189 1187 1187 1189 1190 1191 1190 1190 1190 1190 1189 1190 1190 1192 1192 1192 1191 1191 1190 1189 1189 1191 1191 1190 1190 1190 1191 1191 1190 1190 1189 1191 1192 1192 1190 1190 1191 1192 1192 1191 1190 1190 1190 1190 1190 1190 1191 1192 1192 1191 1190 1191 1190 1191 1191 1192 1191 1192 1191 1192 1190 1190 1188 1190 1190 1192 1193 1193 1192 1193 1192 1193 1192 1192 1192 1192 1193 1193 1192 1192 1193 1193 1193 1193 1193 1194 1195 1195 1195 1194 1194 1194 1194 1193 1194 1195 1196 1197 1196 1195 1194 1195 1195 1197 1197 1197 1198 1197 1198 1197 1200 1202 1203 1202 1199 1199 1198 1200 1199 1200 1199 1199 1200 1201 1201 1201 1202 1201 1202 1202 1203 1203 1202 1203 1204 1205 1205 1204 1204 1204 1205 1204 1203 1203 1203 1205 1204 1203 1201 1201 1201 1201 1202 1201 1201 1200 1200 1203 1208 1210 1209 1208 1207 1205 1202 1199 1197 1194 1190 1187 1184 1182 1179 1176 1173 1171 1168 1166 1162 1159 1154 1150 1146 1143 1140 1138 1134 1127 1101 1062 1031 1021 1019 1020 1022 1026 0 0 0 1743 1724 1742 1742 1755 1757 1755 1743 1742 1748 1747 1744 1738 1744 1725 0
    0 1307 0 0 0 0 0 0 0 0 0 0 1754 1804 0 1726 0 0 0 0 0 0 1720 1742 1752 1746 1754 1733 1730 1696 1683 1718 1737 1748 1749 1732 1705 1703 1695 1699 1702 1717 0 0 0 995 1025 1015 1011 1013 1011 1006 1005 1005 1005 1005 1003 1002 1002 1004 1005 1005 1005 1005 1006 1006 1007 1007 1007 1006 1006 1006 1006 1006 1005 1005 1006 1006 1006 1004 1007 1009 1009 1008 1009 1010 1010 1008 1007 1006 1007 1007 1007 1008 1009 1010 1009 1010 1010 1010 1009 1008 1006 1006 1006 1006 1007 1008 1011 1015 1035 1069 1109 1128 1141 1149 1155 1160 1163 1167 1173 1179 1184 1187 1191 1192 1193 1194 1193 1190 1187 1189 1190 1192 1193 1194 1194 1194 1195 1197 1197 1197 1197 1198 1199 1199 1199 1199 1197 1196 1197 1199 1200 1199 1198 1198 1198 1198 1197 1198 1196 1196 1196 1197 1198 1197 1196 1196 1196 1196 1196 1196 1195 1195 1195 1195 1194 1194 1192 1193 1192 1193 1193 1192 1193 1193 1192 1192 1193 1194 1194 1194 1193 1193 1194 1193 1192 1192 1192 1192 1192 1192 1190 1191 1191 1192 1191 1189 1187 1187 1189 1191 1190 1190 1190 1191 1191 1190 1191 1191 1192 1191 1189 1188 1188 1189 1190 1191 1190 1190 1189 1190 1190 1190 1190 1190 1190 1190 1189 1189 1188 1189 1188 1188 1189 1189 1190 1189 1190 1190 1191 1190 1190 1190 1189 1189 1188 1189 1189 1189 1190 1189 1191 1190 1190 1189 1190 1191 1191 1189 1187 1188 1189 1190 1189 1191 1191 1192 1191 1190 1191 1190 1190 1190 1190 1190 1190 1189 1188 1188 1188 1188 1187 1188 1189 1190 1190 1189 1188 1188 1188 1191 1191 1191 1190 1191 1191 1190 1190 1192 1192 1191 1191 1190 1191 1190 1189 1190 1191 1192 1191 1190 1190 1190 1191 1191 1191 1190 1192 1192 1192 1192 1192 1193 1192 1192 1190 1191 1191 1190 1189 1190 1190 1191 1193 1194 1193 1191 1191 1191 1192 1192 1192 1192 1192 1192 1192 1191 1190 1189 1191 1191 1192 1192 1193 1193 1193 1194 1195 1195 1194 1194 1193 1193 1193 1193 1192 1192 1192 1193 1193 1193 1194 1196 1194 1194 1193 1195 1194 1195 1195 1197 1196 1195 1195 1195 1196 1196 1197 1197 1198 1198 1198 1198 1199 1199 1198 1199 1202 1203 1202 1201 1201 1200 1201 1201 1202 1201 1201 1202 1202 1203 1202 1201 1200 1201 1203 1204 1205 1204 1204 1205 1206 1207 1205 1204 1204 1205 1204 1204 1204 1204 1205 1204 1205 1204 1203 1202 1201 1200 1200 1199 1199 1200 1203 1208 1209 1209 1209 1208 1206 1202 1199 1196 1193 1191 1187 1184 1181 1177 1174 1173 1171 1169 1166 1163 1160 1155 1151 1145 1142 1138 1136 1133 1127 1102 1062 1032 1021 1018 1018 1020 1025 0 0 0 0 1768 1752 1767 1770 1762 1738 1745 1746 1750 1739 1736 1743 1724 1710 0
    0 1332 1343 0 0 0 0 0 0 0 0 0 0 0 0 1711 0 0 0 1689 1716 1773 0 1748 1740 1736 1707 1730 1715 1727 1706 1701 1721 1716 1762 1750 1709 1703 1702 1699 1700 1725 0 0 0 0 1033 1011 1013 1018 1011 1005 1004 1004 1005 1005 1003 1002 1003 1005 1005 1006 1005 1006 1006 1006 1007 1006 1007 1006 1006 1006 1005 1006 1005 1006 1006 1007 1006 1007 1007 1008 1007 1007 1008 1008 1009 1007 1008 1006 1006 1006 1007 1008 1009 1010 1009 1010 1009 1009 1009 1008 1008 1007 1008 1008 1009 1010 1011 1017 1036 1069 1108 1127 1139 1147 1155 1158 1163 1167 1173 1179 1184 1186 1188 1191 1192 1194 1193 1189 1188 1188 1190 1191 1194 1195 1196 1194 1195 1196 1197 1198 1199 1199 1199 1199 1199 1199 1198 1198 1198 1199 1199 1198 1197 1197 1197 1198 1197 1197 1196 1196 1195 1197 1197 1197 1197 1196 1197 1197 1197 1196 1196 1197 1197 1196 1195 1194 1192 1192 1191 1193 1192 1192 1193 1192 1192 1192 1193 1193 1193 1194 1193 1194 1193 1192 1192 1193 1193 1193 1192 1191 1190 1190 1191 1191 1190 1189 1188 1188 1189 1192 1191 1191 1191 1192 1192 1190 1190 1190 1192 1191 1190 1189 1189 1188 1188 1189 1190 1191 1191 1191 1191 1191 1191 1190 1190 1190 1189 1189 1189 1189 1188 1188 1189 1190 1191 1190 1190 1190 1190 1189 1190 1190 1190 1189 1189 1190 1189 1189 1189 1189 1190 1190 1190 1190 1191 1191 1191 1190 1189 1190 1191 1191 1189 1189 1190 1191 1191 1190 1192 1191 1191 1190 1191 1189 1190 1189 1189 1188 1187 1187 1187 1188 1189 1189 1189 1188 1188 1186 1187 1189 1190 1191 1192 1192 1191 1189 1191 1191 1192 1190 1190 1189 1190 1190 1190 1190 1190 1190 1190 1189 1190 1190 1190 1190 1191 1190 1191 1191 1191 1192 1193 1194 1193 1191 1190 1189 1190 1189 1190 1190 1190 1190 1191 1193 1193 1191 1191 1191 1192 1192 1192 1192 1193 1193 1192 1190 1190 1189 1191 1191 1192 1192 1192 1193 1194 1194 1194 1194 1195 1194 1192 1192 1192 1192 1193 1193 1192 1192 1193 1194 1194 1194 1194 1194 1195 1195 1194 1195 1196 1197 1196 1195 1194 1194 1196 1196 1197 1196 1198 1197 1197 1197 1199 1198 1199 1198 1200 1200 1201 1199 1200 1199 1201 1199 1200 1199 1200 1200 1200 1201 1202 1202 1201 1201 1202 1203 1204 1203 1203 1204 1204 1205 1203 1204 1204 1204 1205 1205 1204 1204 1204 1203 1204 1203 1203 1201 1200 1200 1199 1199 1197 1199 1201 1207 1208 1209 1208 1207 1205 1201 1198 1195 1193 1190 1188 1186 1183 1179 1175 1173 1172 1169 1165 1162 1159 1155 1152 1147 1143 1139 1136 1134 1127 1102 1061 1030 1021 1018 1018 1018 1021 0 0 0 1765 1757 1757 1757 1772 1756 1734 1741 1762 1753 1746 1760 1756 1738 1724 0
    0 1351 1351 1360 1349 0 0 0 0 0 1727 1735 0 0 0 1694 0 0 1746 0 1766 1734 1735 1729 1734 1718 1711 1703 1728 1732 1746 1723 1727 1739 1733 1727 1712 1721 1726 1719 1711 1726 1766 0 0 0 1023 1007 1013 1018 1009 1005 1003 1004 1004 1005 1005 1003 1003 1004 1005 1006 1005 1006 1006 1005 1006 1007 1007 1007 1007 1007 1005 1005 1005 1005 1005 1005 1006 1007 1008 1008 1007 1007 1009 1009 1009 1008 1008 1006 1007 1007 1008 1009 1009 1010 1011 1010 1011 1010 1010 1007 1007 1008 1008 1009 1009 1011 1012 1016 1035 1069 1108 1127 1140 1148 1155 1159 1163 1167 1173 1178 1183 1187 1188 1191 1192 1194 1193 1191 1188 1188 1191 1192 1195 1194 1195 1194 1194 1195 1196 1197 1199 1199 1199 1199 1200 1199 1199 1199 1200 1200 1199 1198 1198 1198 1199 1199 1198 1198 1197 1197 1196 1196 1196 1198 1197 1196 1197 1197 1197 1196 1196 1196 1196 1196 1195 1194 1192 1191 1191 1193 1193 1193 1194 1193 1192 1192 1192 1193 1192 1194 1193 1193 1192 1192 1192 1193 1192 1192 1191 1191 1190 1190 1191 1190 1189 1189 1189 1190 1191 1192 1191 1191 1192 1193 1192 1190 1189 1189 1190 1190 1189 1190 1190 1190 1191 1191 1191 1191 1192 1191 1190 1191 1191 1191 1190 1191 1190 1191 1190 1189 1188 1188 1189 1190 1190 1189 1190 1190 1190 1189 1190 1190 1189 1188 1189 1190 1189 1189 1189 1190 1191 1190 1190 1190 1189 1190 1190 1189 1189 1190 1191 1190 1189 1189 1190 1190 1190 1190 1192 1191 1191 1190 1190 1190 1190 1190 1189 1189 1187 1186 1187 1189 1190 1189 1188 1188 1188 1188 1188 1189 1189 1190 1191 1192 1190 1190 1190 1192 1192 1191 1190 1189 1189 1189 1189 1190 1190 1190 1189 1189 1190 1190 1191 1192 1191 1191 1189 1190 1190 1192 1192 1193 1193 1192 1191 1191 1191 1191 1191 1191 1191 1190 1191 1193 1193 1193 1192 1193 1192 1193 1193 1194 1194 1193 1193 1192 1192 1192 1192 1192 1192 1193 1193 1194 1195 1195 1195 1194 1194 1194 1192 1192 1193 1194 1193 1193 1192 1193 1192 1193 1193 1194 1194 1195 1196 1196 1196 1197 1197 1197 1195 1195 1195 1196 1197 1197 1197 1197 1199 1198 1198 1198 1200 1199 1198 1197 1199 1200 1201 1200 1200 1200 1202 1201 1201 1200 1202 1201 1202 1203 1203 1203 1202 1203 1203 1204 1204 1205 1203 1205 1204 1205 1204 1204 1204 1205 1207 1207 1207 1206 1205 1204 1204 1205 1204 1202 1201 1200 1200 1199 1198 1198 1201 1208 1209 1209 1207 1206 1203 1201 1199 1196 1192 1189 1187 1186 1182 1178 1174 1173 1171 1169 1165 1161 1157 1154 1151 1147 1142 1139 1136 1135 1126 1102 1061 1032 1022 1019 1018 1017 1015 0 0 0 0 1738 1744 1747 1740 1735 1739 1742 1754 1763 1761 1762 1777 1758 1737 0
    0 1357 1354 1360 1359 1358 1351 0 0 0 0 1729 1735 0 0 0 0 1746 1755 1783 1788 0 0 0 0 1720 1705 1713 1711 1749 1732 1739 1727 1732 1747 1722 1722 1722 1734 1726 1727 1728 1738 0 0 0 1014 1008 1013 1019 1010 1007 1004 1003 1004 1005 1005 1004 1004 1005 1005 1006 1005 1006 1005 1004 1005 1005 1006 1007 1006 1006 1005 1006 1005 1006 1005 1006 1006 1007 1007 1008 1007 1007 1007 1008 1008 1008 1009 1008 1008 1008 1009 1009 1010 1010 1010 1009 1008 1007 1008 1009 1009 1010 1010 1011 1011 1012 1011 1016 1035 1070 1108 1125 1138 1146 1154 1159 1164 1167 1172 1177 1182 1186 1187 1191 1191 1194 1193 1192 1191 1190 1193 1192 1193 1192 1193 1194 1196 1196 1197 1197 1199 1198 1198 1198 1199 1199 1199 1199 1199 1198 1197 1196 1196 1197 1199 1200 1199 1197 1197 1197 1195 1196 1196 1198 1198 1197 1196 1196 1196 1195 1195 1196 1196 1196 1196 1194 1194 1193 1192 1193 1192 1194 1194 1194 1193 1193 1192 1192 1192 1193 1192 1191 1190 1191 1192 1192 1192 1192 1191 1190 1190 1190 1191 1189 1189 1189 1190 1190 1191 1191 1191 1190 1191 1191 1191 1190 1189 1189 1189 1189 1190 1191 1192 1190 1188 1189 1190 1192 1192 1191 1188 1189 1190 1191 1190 1191 1190 1190 1188 1188 1188 1188 1190 1191 1190 1189 1190 1190 1190 1190 1191 1190 1190 1188 1189 1188 1189 1189 1190 1190 1191 1191 1191 1190 1189 1189 1189 1189 1189 1189 1191 1190 1190 1190 1190 1188 1189 1189 1191 1191 1191 1190 1191 1190 1190 1189 1189 1189 1188 1187 1188 1189 1190 1189 1188 1188 1188 1189 1188 1189 1189 1190 1191 1192 1191 1190 1189 1190 1190 1190 1190 1190 1190 1189 1189 1189 1190 1190 1190 1189 1191 1191 1190 1190 1190 1189 1188 1189 1189 1190 1190 1190 1192 1191 1191 1190 1191 1191 1191 1191 1191 1190 1190 1190 1191 1192 1192 1191 1191 1192 1193 1193 1193 1192 1192 1191 1192 1192 1192 1192 1191 1191 1193 1193 1195 1194 1194 1192 1193 1192 1192 1192 1193 1192 1192 1193 1193 1193 1193 1194 1193 1194 1194 1195 1195 1195 1196 1198 1198 1196 1196 1196 1196 1195 1196 1195 1195 1195 1197 1196 1197 1197 1198 1197 1198 1197 1198 1199 1199 1198 1199 1199 1201 1200 1201 1199 1200 1200 1202 1201 1201 1202 1203 1203 1203 1203 1203 1203 1202 1203 1203 1204 1204 1205 1204 1204 1205 1205 1207 1206 1205 1204 1203 1203 1203 1203 1202 1201 1201 1200 1199 1199 1202 1208 1210 1209 1207 1206 1204 1201 1199 1196 1193 1189 1188 1185 1182 1178 1176 1174 1171 1168 1165 1160 1156 1153 1152 1148 1144 1140 1137 1135 1126 1100 1060 1031 1022 1021 1020 1018 1019 0 0 0 0 1744 1736 1733 1726 1728 1740 1748 1748 1750 1763 1771 1787 1770 1738 0
    0 1317 1336 1356 1360 1366 1355 1371 1374 0 0 0 1731 0 1789 1779 1748 1745 1766 1761 1774 0 1699 1702 1712 0 1722 1708 1726 1743 1720 1732 1723 1709 1717 1721 1725 1728 1740 1747 1740 1732 1742 0 0 0 993 1004 1010 1014 1009 1007 1004 1004 1004 1005 1005 1004 1004 1006 1006 1007 1006 1005 1004 1005 1005 1005 1006 1006 1006 1005 1004 1004 1005 1006 1006 1005 1005 1006 1007 1009 1008 1006 1006 1007 1008 1008 1008 1007 1008 1008 1009 1008 1008 1009 1009 1008 1009 1008 1009 1009 1009 1010 1010 1011 1011 1012 1012 1016 1035 1070 1108 1126 1139 1147 1153 1159 1164 1168 1173 1177 1182 1186 1189 1191 1192 1195 1194 1193 1191 1191 1193 1192 1192 1191 1193 1196 1196 1196 1197 1198 1198 1196 1195 1196 1198 1198 1197 1198 1199 1199 1198 1197 1196 1197 1200 1199 1199 1197 1198 1198 1196 1196 1196 1198 1198 1197 1196 1196 1196 1195 1194 1194 1194 1195 1196 1196 1195 1194 1193 1193 1192 1194 1194 1196 1194 1193 1191 1191 1192 1192 1192 1191 1191 1192 1192 1192 1192 1191 1191 1190 1191 1192 1191 1189 1188 1189 1190 1189 1190 1189 1191 1190 1191 1190 1191 1190 1191 1190 1191 1191 1192 1192 1192 1191 1190 1191 1191 1191 1190 1189 1188 1189 1189 1191 1191 1192 1191 1190 1190 1189 1189 1190 1191 1191 1190 1189 1189 1189 1189 1189 1190 1190 1189 1189 1190 1189 1189 1188 1189 1189 1190 1189 1189 1188 1188 1188 1189 1189 1190 1190 1191 1190 1190 1190 1189 1188 1188 1189 1190 1191 1191 1191 1191 1191 1190 1189 1189 1190 1188 1188 1187 1188 1189 1190 1188 1188 1188 1189 1189 1189 1189 1189 1190 1191 1191 1191 1190 1190 1190 1191 1190 1190 1189 1189 1189 1188 1190 1190 1191 1191 1192 1192 1192 1191 1190 1189 1188 1190 1191 1191 1190 1190 1191 1192 1192 1192 1191 1191 1190 1191 1190 1192 1192 1192 1191 1192 1192 1193 1192 1192 1191 1192 1192 1192 1192 1193 1193 1194 1192 1192 1192 1193 1193 1193 1194 1193 1193 1193 1192 1192 1192 1192 1192 1192 1192 1192 1193 1194 1194 1194 1194 1195 1194 1194 1194 1195 1196 1198 1197 1196 1196 1196 1196 1195 1195 1195 1195 1196 1197 1196 1198 1198 1199 1198 1198 1198 1199 1199 1199 1198 1199 1200 1202 1202 1202 1201 1201 1202 1203 1203 1202 1202 1203 1203 1203 1204 1205 1204 1204 1204 1204 1206 1206 1206 1204 1203 1205 1205 1207 1205 1205 1205 1205 1205 1204 1203 1202 1202 1203 1202 1201 1201 1204 1209 1211 1210 1208 1207 1204 1202 1200 1197 1193 1189 1188 1185 1182 1178 1176 1175 1172 1169 1164 1160 1156 1153 1151 1147 1144 1141 1137 1134 1124 1098 1058 1033 1024 1021 1020 1020 1021 0 0 0 0 1724 1742 1730 1732 1724 1736 1757 1757 1788 1781 1770 1774 1751 1732 0
    0 1289 1312 1333 1350 1356 1364 1369 1374 1373 0 0 0 0 0 0 1739 1748 1749 0 1758 1781 1763 1717 1741 1733 1732 1733 1721 1714 1743 1739 1722 1693 1700 1710 1723 1743 1735 1735 1743 1709 0 0 0 966 992 1009 1009 1014 1009 1006 1004 1004 1005 1005 1006 1004 1004 1006 1007 1007 1005 1004 1004 1006 1006 1005 1004 1004 1006 1005 1005 1005 1006 1007 1006 1005 1005 1005 1006 1008 1008 1006 1005 1006 1008 1008 1008 1007 1007 1007 1008 1007 1007 1008 1009 1009 1009 1009 1008 1009 1010 1010 1010 1011 1010 1010 1009 1015 1035 1070 1107 1125 1138 1146 1153 1159 1166 1169 1173 1176 1180 1183 1187 1191 1193 1195 1195 1194 1193 1192 1193 1191 1192 1192 1195 1197 1198 1197 1198 1198 1197 1196 1195 1197 1198 1198 1196 1197 1197 1199 1199 1197 1195 1196 1199 1199 1198 1197 1197 1197 1196 1196 1197 1198 1197 1197 1197 1197 1197 1196 1195 1195 1195 1195 1196 1196 1195 1194 1193 1192 1191 1193 1194 1195 1193 1192 1191 1191 1192 1192 1191 1192 1191 1192 1191 1192 1193 1192 1191 1190 1192 1192 1191 1190 1189 1190 1189 1188 1189 1188 1189 1189 1191 1190 1190 1190 1191 1191 1191 1192 1192 1192 1192 1190 1189 1190 1190 1191 1189 1189 1188 1189 1189 1190 1191 1192 1191 1190 1190 1189 1189 1189 1190 1191 1190 1190 1190 1190 1190 1190 1191 1191 1191 1190 1190 1189 1189 1189 1189 1189 1190 1189 1189 1188 1188 1189 1190 1190 1191 1190 1191 1190 1190 1189 1189 1188 1188 1189 1190 1191 1192 1191 1191 1190 1190 1189 1190 1189 1189 1189 1189 1188 1188 1189 1188 1189 1189 1190 1190 1189 1189 1189 1191 1191 1191 1190 1191 1190 1190 1190 1189 1190 1190 1191 1191 1190 1189 1188 1190 1191 1191 1190 1191 1190 1189 1188 1188 1190 1191 1191 1190 1190 1191 1191 1190 1190 1189 1189 1189 1190 1190 1191 1192 1192 1191 1190 1192 1191 1193 1191 1191 1191 1192 1192 1192 1192 1194 1193 1192 1192 1192 1193 1192 1192 1192 1192 1193 1193 1193 1192 1192 1192 1192 1192 1193 1192 1194 1195 1196 1195 1196 1195 1195 1194 1195 1196 1196 1196 1196 1195 1196 1195 1195 1194 1194 1195 1196 1196 1196 1195 1196 1195 1197 1196 1198 1197 1198 1197 1198 1197 1198 1199 1200 1201 1201 1201 1200 1200 1201 1201 1201 1201 1202 1201 1203 1204 1204 1203 1202 1202 1203 1205 1206 1207 1204 1202 1203 1203 1205 1204 1204 1204 1204 1204 1203 1201 1201 1201 1202 1201 1201 1200 1204 1209 1212 1210 1209 1209 1206 1203 1200 1198 1194 1191 1188 1185 1182 1179 1177 1176 1174 1169 1165 1160 1157 1153 1151 1147 1145 1141 1138 1133 1122 1095 1058 1031 1024 1021 1022 1021 1016 0 0 0 0 1767 1758 1738 1719 1732 1737 1745 1752 1758 1772 1764 1739 1739 1731 0
    0 0 1282 1289 1322 1359 1374 1378 1380 1377 1383 1393 1417 0 0 0 0 1722 1710 1729 1765 1771 1778 1732 1745 1744 1746 1732 1713 1721 1749 1752 1729 1699 1690 1709 1720 1717 1724 1725 1694 1698 0 0 0 0 1006 1008 1009 1013 1008 1006 1006 1006 1006 1005 1005 1004 1004 1005 1006 1006 1005 1004 1005 1006 1006 1006 1005 1005 1006 1006 1004 1005 1006 1006 1005 1004 1005 1006 1007 1007 1006 1005 1005 1005 1008 1008 1008 1006 1007 1007 1008 1007 1006 1008 1009 1010 1009 1010 1009 1009 1009 1010 1009 1009 1008 1008 1008 1013 1034 1069 1107 1126 1138 1146 1152 1158 1165 1169 1174 1177 1181 1184 1187 1190 1193 1195 1194 1192 1190 1190 1191 1191 1193 1194 1197 1198 1197 1196 1197 1197 1196 1195 1194 1197 1198 1199 1198 1197 1198 1200 1201 1200 1198 1198 1198 1198 1197 1198 1197 1196 1195 1196 1196 1196 1196 1196 1196 1197 1196 1195 1194 1194 1194 1194 1196 1196 1196 1194 1192 1191 1191 1192 1194 1193 1192 1191 1190 1191 1191 1192 1192 1192 1192 1193 1193 1193 1194 1192 1191 1190 1192 1192 1191 1189 1189 1190 1190 1190 1189 1189 1189 1190 1191 1191 1190 1190 1191 1192 1193 1192 1192 1191 1191 1190 1191 1191 1190 1190 1189 1189 1189 1189 1189 1189 1190 1191 1191 1190 1190 1190 1188 1187 1188 1189 1189 1190 1190 1190 1191 1190 1190 1188 1189 1190 1190 1190 1189 1188 1187 1188 1188 1189 1188 1187 1187 1188 1189 1191 1191 1191 1190 1190 1190 1189 1189 1189 1189 1190 1190 1191 1190 1190 1189 1191 1191 1191 1190 1189 1189 1190 1189 1188 1188 1190 1189 1188 1188 1190 1191 1190 1190 1190 1190 1189 1189 1190 1191 1191 1190 1190 1189 1190 1190 1191 1191 1191 1189 1188 1189 1191 1191 1191 1191 1191 1190 1189 1189 1191 1192 1193 1192 1191 1190 1190 1189 1190 1189 1189 1190 1191 1190 1191 1192 1193 1192 1191 1192 1193 1194 1193 1191 1191 1192 1193 1193 1192 1193 1193 1192 1192 1192 1194 1192 1192 1192 1193 1193 1194 1193 1193 1192 1192 1192 1192 1193 1192 1193 1194 1195 1195 1196 1195 1194 1193 1194 1195 1196 1196 1196 1196 1195 1195 1194 1195 1195 1196 1196 1197 1196 1196 1197 1197 1197 1197 1198 1197 1197 1197 1198 1198 1198 1199 1200 1201 1201 1202 1201 1201 1201 1201 1202 1202 1203 1202 1202 1204 1206 1206 1203 1203 1204 1206 1206 1206 1204 1203 1204 1204 1205 1204 1203 1204 1205 1205 1204 1202 1200 1200 1202 1203 1201 1202 1204 1209 1211 1209 1209 1208 1206 1203 1201 1199 1196 1192 1190 1187 1183 1179 1176 1176 1174 1169 1165 1161 1159 1155 1152 1146 1144 1140 1138 1133 1122 1095 1057 1031 1024 1020 1021 1019 1021 0 0 0 1747 1772 1760 1723 1750 1754 1758 1778 1739 1734 1744 1746 1739 1728 1726 0
    0 0 0 1257 1238 0 1384 1393 1393 1390 1390 1391 1393 1405 0 0 0 1678 1701 0 0 0 1758 1757 1747 1740 1724 1745 1716 1717 1731 1727 1732 1717 1697 1708 1709 1694 1691 1690 1663 1668 0 0 0 0 1021 1009 1015 1014 1009 1005 1006 1006 1006 1004 1005 1003 1003 1003 1004 1004 1004 1004 1005 1006 1006 1007 1006 1006 1006 1006 1006 1007 1007 1007 1006 1006 1005 1006 1006 1007 1007 1006 1006 1006 1007 1007 1006 1006 1006 1008 1008 1008 1007 1008 1008 1008 1008 1008 1008 1009 1010 1011 1010 1009 1009 1008 1008 1012 1032 1069 1107 1126 1138 1146 1153 1159 1165 1169 1172 1176 1181 1184 1186 1189 1192 1196 1195 1193 1190 1189 1189 1190 1193 1194 1195 1195 1195 1195 1196 1197 1196 1196 1197 1199 1199 1199 1199 1199 1198 1199 1200 1200 1197 1197 1198 1198 1197 1197 1196 1195 1196 1196 1197 1197 1196 1196 1196 1197 1195 1195 1194 1194 1193 1194 1195 1196 1196 1195 1192 1191 1191 1192 1194 1194 1192 1192 1192 1192 1191 1192 1192 1192 1192 1192 1192 1191 1192 1192 1191 1189 1190 1191 1191 1189 1189 1190 1190 1189 1190 1191 1190 1190 1190 1191 1191 1190 1190 1191 1191 1189 1189 1188 1189 1188 1190 1190 1190 1191 1191 1191 1190 1189 1188 1188 1189 1191 1191 1190 1191 1190 1189 1187 1188 1189 1190 1190 1190 1190 1191 1191 1190 1189 1189 1189 1190 1190 1190 1189 1188 1188 1189 1189 1188 1188 1187 1188 1189 1191 1190 1189 1188 1188 1189 1189 1190 1190 1190 1190 1189 1189 1189 1190 1189 1191 1190 1191 1189 1189 1189 1190 1189 1188 1190 1190 1189 1189 1189 1191 1191 1190 1189 1189 1190 1189 1188 1189 1190 1190 1189 1189 1189 1192 1191 1191 1190 1190 1189 1188 1189 1190 1191 1189 1190 1190 1191 1190 1190 1190 1190 1192 1192 1192 1190 1189 1189 1188 1187 1187 1189 1190 1190 1189 1190 1191 1191 1192 1192 1191 1192 1192 1191 1189 1191 1192 1193 1192 1192 1193 1193 1193 1193 1193 1192 1192 1192 1192 1193 1193 1194 1193 1193 1192 1193 1193 1193 1192 1193 1194 1195 1194 1195 1194 1194 1193 1195 1195 1196 1194 1195 1195 1195 1194 1195 1195 1196 1195 1196 1195 1196 1197 1197 1196 1196 1196 1196 1197 1197 1197 1198 1198 1199 1199 1199 1198 1200 1201 1202 1201 1201 1201 1202 1201 1202 1201 1201 1203 1204 1204 1202 1202 1203 1205 1205 1204 1204 1203 1204 1204 1204 1203 1203 1203 1204 1205 1204 1202 1200 1200 1201 1201 1200 1201 1204 1209 1210 1210 1208 1208 1206 1202 1199 1197 1196 1193 1190 1187 1182 1179 1176 1174 1172 1169 1164 1160 1158 1155 1153 1147 1144 1140 1138 1134 1124 1096 1057 1029 1022 1019 1020 1020 1027 0 0 1745 0 1723 1737 1750 1749 1758 1778 1759 1768 1750 1748 1723 1749 1741 1731 0
    0 0 0 0 0 0 0 1401 1400 1394 1388 1390 1393 1397 0 0 0 0 1681 0 0 0 1753 0 1751 1713 0 0 0 1758 1726 1728 1728 1723 0 1672 1678 1672 1669 0 1665 1701 0 0 0 0 1011 1013 1018 1019 1011 1004 1005 1005 1005 1004 1004 1004 1005 1004 1005 1003 1005 1005 1006 1006 1006 1007 1007 1007 1006 1005 1005 1006 1007 1007 1007 1006 1006 1006 1006 1007 1007 1007 1007 1007 1006 1006 1005 1007 1007 1009 1009 1008 1007 1008 1007 1007 1007 1007 1008 1009 1009 1010 1010 1010 1010 1010 1009 1013 1032 1067 1106 1126 1138 1146 1153 1159 1165 1169 1173 1177 1182 1186 1188 1189 1191 1195 1194 1191 1188 1188 1189 1192 1193 1193 1194 1195 1195 1196 1196 1197 1196 1196 1196 1197 1198 1199 1201 1200 1198 1198 1199 1199 1197 1195 1196 1197 1198 1197 1196 1196 1196 1196 1196 1195 1195 1195 1195 1195 1195 1195 1194 1194 1193 1194 1196 1196 1196 1194 1193 1191 1191 1192 1192 1193 1192 1192 1192 1191 1191 1192 1192 1193 1192 1193 1192 1192 1192 1191 1190 1188 1189 1191 1191 1188 1187 1189 1189 1190 1189 1191 1191 1190 1190 1190 1190 1190 1189 1190 1190 1189 1188 1189 1190 1189 1190 1190 1189 1189 1190 1191 1189 1188 1188 1189 1190 1191 1190 1189 1189 1189 1189 1187 1189 1189 1190 1189 1190 1190 1190 1189 1189 1189 1189 1189 1189 1190 1191 1190 1188 1187 1188 1189 1188 1187 1186 1187 1188 1190 1190 1191 1189 1189 1189 1190 1190 1190 1189 1190 1189 1189 1188 1189 1189 1191 1190 1190 1188 1189 1188 1187 1187 1187 1189 1190 1189 1189 1189 1189 1190 1189 1188 1189 1190 1189 1188 1189 1189 1189 1188 1189 1190 1192 1190 1190 1189 1190 1190 1191 1191 1191 1192 1191 1190 1191 1192 1192 1191 1191 1191 1191 1191 1192 1191 1189 1189 1189 1189 1189 1189 1191 1191 1191 1191 1191 1191 1193 1192 1192 1193 1192 1191 1190 1190 1192 1193 1192 1191 1192 1192 1193 1193 1194 1193 1193 1193 1193 1192 1193 1194 1194 1194 1193 1193 1193 1193 1193 1194 1194 1194 1193 1194 1194 1194 1193 1194 1195 1195 1195 1196 1196 1195 1194 1194 1195 1196 1195 1196 1197 1198 1198 1198 1198 1197 1196 1197 1197 1198 1198 1199 1200 1200 1200 1200 1201 1201 1201 1202 1201 1202 1202 1203 1203 1203 1203 1202 1203 1204 1205 1204 1205 1204 1205 1204 1203 1204 1205 1205 1205 1205 1205 1205 1205 1205 1206 1205 1204 1202 1203 1203 1202 1201 1201 1205 1209 1210 1209 1209 1208 1207 1203 1200 1195 1194 1191 1189 1187 1183 1180 1177 1175 1172 1169 1164 1160 1157 1155 1153 1148 1144 1140 1137 1136 1127 1100 1059 1029 1020 1018 1019 1022 1034 0 0 0 1749 1728 1733 1745 1761 1756 1749 1755 1765 1772 1740 1742 1742 1747 1732 0
    0 0 0 0 0 0 0 0 1392 1390 1384 1388 1390 1398 1397 1398 1438 0 0 0 0 0 0 1753 1747 1720 1722 1723 1756 1738 1734 1725 1715 0 1680 1666 0 0 0 0 0 1708 0 0 0 995 1014 1019 1031 1027 1014 1004 1004 1003 1005 1004 1004 1004 1006 1005 1006 1004 1004 1005 1006 1006 1006 1007 1007 1006 1005 1004 1005 1007 1007 1007 1007 1008 1007 1007 1008 1008 1008 1007 1006 1006 1005 1005 1006 1008 1008 1008 1008 1008 1007 1007 1007 1007 1007 1008 1008 1009 1009 1009 1009 1010 1010 1011 1011 1017 1034 1069 1105 1125 1138 1147 1154 1159 1164 1169 1174 1178 1182 1184 1187 1188 1191 1194 1193 1191 1188 1189 1189 1192 1192 1193 1194 1195 1196 1197 1196 1197 1198 1199 1198 1197 1197 1197 1198 1199 1200 1198 1199 1198 1197 1195 1195 1197 1197 1197 1196 1197 1197 1196 1196 1196 1196 1195 1196 1196 1197 1196 1194 1193 1193 1194 1195 1195 1194 1193 1194 1192 1192 1191 1192 1193 1192 1192 1192 1192 1192 1192 1193 1193 1192 1192 1191 1192 1192 1192 1190 1188 1189 1191 1191 1189 1188 1189 1190 1191 1190 1191 1191 1190 1189 1190 1190 1190 1188 1190 1189 1188 1189 1189 1190 1189 1189 1189 1189 1189 1189 1190 1189 1189 1189 1189 1190 1190 1190 1189 1190 1190 1191 1189 1190 1189 1190 1189 1190 1189 1188 1189 1189 1190 1190 1189 1189 1190 1192 1191 1190 1189 1189 1190 1189 1188 1187 1187 1188 1190 1191 1192 1191 1190 1189 1189 1189 1188 1189 1190 1190 1190 1190 1190 1190 1191 1190 1190 1190 1190 1188 1186 1186 1187 1189 1189 1190 1190 1188 1188 1188 1189 1189 1189 1190 1190 1190 1190 1190 1189 1188 1189 1190 1191 1190 1189 1188 1189 1190 1190 1191 1191 1191 1189 1190 1190 1192 1191 1190 1190 1190 1189 1190 1191 1191 1189 1189 1189 1189 1188 1188 1189 1191 1191 1191 1191 1190 1190 1191 1191 1192 1192 1192 1190 1190 1192 1193 1193 1193 1193 1193 1193 1193 1192 1192 1192 1193 1193 1193 1192 1193 1193 1194 1193 1193 1192 1192 1192 1193 1194 1194 1193 1194 1194 1194 1193 1195 1195 1195 1194 1195 1195 1195 1194 1194 1194 1196 1194 1195 1197 1199 1198 1197 1197 1198 1198 1198 1199 1199 1198 1198 1199 1199 1199 1199 1201 1201 1201 1202 1201 1201 1200 1202 1202 1202 1202 1202 1203 1203 1205 1204 1204 1203 1204 1203 1203 1203 1204 1205 1205 1205 1205 1205 1205 1205 1205 1204 1204 1203 1203 1203 1203 1201 1201 1205 1208 1209 1208 1208 1209 1207 1203 1199 1194 1191 1189 1189 1187 1183 1181 1176 1174 1170 1168 1163 1160 1158 1155 1152 1148 1144 1140 1137 1135 1127 1100 1058 1029 1021 1019 1018 1020 1031 0 0 1740 0 1715 1727 1748 1753 1746 1741 1739 1745 1764 1766 1771 1753 1738 1746 0
    0 0 0 0 0 0 0 0 0 1370 1376 1379 1388 1392 1396 1396 1390 1390 1394 0 0 0 0 1696 1679 1734 1713 1742 1736 1731 1730 1729 1702 1666 1674 0 0 0 0 0 0 1672 0 0 0 1011 1010 1020 1028 1024 1011 1002 1003 1003 1004 1004 1004 1004 1005 1005 1006 1004 1005 1004 1005 1005 1006 1007 1007 1006 1005 1004 1004 1006 1006 1006 1007 1007 1007 1007 1007 1007 1007 1006 1006 1006 1006 1006 1007 1009 1008 1008 1008 1008 1007 1007 1008 1009 1009 1010 1009 1008 1007 1007 1007 1008 1008 1009 1009 1016 1035 1069 1104 1123 1136 1147 1153 1158 1164 1170 1176 1179 1182 1184 1187 1189 1190 1192 1190 1188 1186 1189 1191 1192 1192 1193 1194 1196 1197 1198 1197 1197 1197 1198 1197 1196 1198 1198 1199 1198 1200 1198 1198 1197 1198 1197 1196 1198 1198 1199 1197 1197 1195 1195 1195 1196 1195 1196 1195 1197 1198 1197 1196 1195 1195 1194 1195 1193 1193 1193 1195 1194 1193 1191 1191 1192 1193 1192 1191 1191 1191 1192 1193 1193 1192 1192 1191 1192 1192 1194 1192 1191 1191 1191 1190 1189 1188 1189 1189 1191 1190 1190 1190 1190 1189 1190 1190 1191 1189 1190 1190 1190 1192 1192 1192 1190 1189 1188 1188 1187 1188 1188 1189 1189 1190 1190 1191 1190 1189 1188 1187 1189 1189 1189 1189 1188 1189 1188 1189 1188 1188 1189 1189 1189 1189 1189 1190 1191 1193 1192 1190 1189 1189 1190 1190 1190 1187 1188 1189 1190 1190 1190 1191 1190 1190 1189 1189 1188 1189 1190 1191 1191 1189 1188 1188 1190 1189 1189 1189 1189 1188 1187 1187 1188 1190 1189 1189 1189 1187 1187 1187 1190 1189 1190 1190 1191 1191 1191 1191 1191 1189 1190 1191 1190 1189 1189 1189 1189 1189 1191 1191 1192 1191 1190 1189 1190 1191 1191 1190 1190 1190 1191 1192 1191 1191 1189 1190 1191 1191 1190 1190 1191 1192 1192 1192 1192 1191 1191 1192 1192 1192 1194 1194 1194 1193 1194 1194 1194 1194 1194 1193 1193 1193 1194 1193 1194 1194 1194 1193 1192 1193 1195 1195 1194 1192 1192 1192 1192 1192 1193 1192 1193 1193 1194 1194 1194 1195 1195 1195 1196 1196 1196 1195 1194 1194 1195 1195 1196 1196 1199 1199 1197 1196 1197 1199 1199 1199 1199 1198 1198 1199 1200 1199 1200 1200 1202 1202 1203 1202 1201 1201 1200 1202 1202 1203 1203 1203 1204 1204 1206 1205 1205 1204 1204 1204 1204 1203 1204 1204 1205 1205 1205 1205 1205 1206 1205 1205 1204 1204 1203 1203 1203 1201 1202 1204 1209 1210 1209 1209 1208 1206 1203 1201 1196 1192 1190 1189 1189 1184 1180 1176 1176 1172 1170 1164 1160 1158 1156 1152 1147 1144 1142 1139 1136 1128 1100 1056 1029 1022 1020 1018 1018 1025 0 0 0 0 1722 1735 1765 1758 1749 1741 1722 1735 1755 1773 1780 1754 1752 1755 0
    0 0 0 0 0 0 0 0 0 0 0 1371 1369 1379 1385 1389 1392 1394 1403 1395 0 0 0 0 1654 0 0 1746 1727 1699 1713 1701 0 0 1618 0 0 0 0 0 0 0 0 0 0 1000 1008 1012 1023 1018 1008 1003 1003 1003 1002 1003 1003 1004 1004 1004 1004 1004 1005 1004 1004 1005 1007 1007 1007 1005 1005 1005 1005 1006 1006 1007 1007 1007 1007 1006 1007 1007 1007 1006 1005 1005 1006 1006 1007 1008 1008 1007 1007 1007 1007 1007 1008 1010 1010 1010 1008 1007 1006 1006 1007 1007 1007 1008 1009 1016 1036 1069 1104 1122 1135 1147 1153 1158 1164 1169 1175 1178 1181 1184 1187 1190 1192 1192 1189 1187 1187 1189 1190 1190 1191 1192 1193 1194 1196 1197 1197 1196 1198 1199 1198 1197 1197 1198 1198 1198 1199 1197 1197 1198 1199 1199 1198 1198 1198 1199 1198 1197 1196 1196 1196 1196 1195 1196 1196 1197 1196 1195 1196 1196 1195 1194 1194 1192 1194 1194 1195 1194 1193 1191 1191 1193 1194 1193 1191 1191 1191 1192 1192 1193 1192 1192 1191 1192 1192 1193 1192 1193 1193 1192 1190 1190 1190 1190 1190 1190 1190 1189 1189 1189 1189 1190 1190 1191 1191 1191 1192 1191 1191 1191 1191 1190 1189 1189 1189 1189 1189 1190 1190 1189 1190 1189 1190 1189 1190 1188 1188 1189 1190 1189 1188 1188 1189 1188 1188 1187 1188 1189 1189 1188 1188 1189 1190 1191 1192 1192 1191 1190 1189 1189 1190 1190 1188 1189 1189 1190 1188 1188 1188 1189 1189 1186 1186 1186 1188 1188 1190 1191 1191 1189 1188 1189 1190 1189 1189 1188 1189 1188 1189 1189 1190 1189 1190 1189 1188 1187 1187 1190 1190 1191 1190 1190 1190 1189 1191 1190 1190 1190 1190 1190 1189 1190 1190 1189 1189 1189 1190 1191 1191 1191 1190 1190 1190 1190 1189 1189 1190 1191 1192 1192 1191 1189 1191 1192 1191 1190 1190 1192 1192 1191 1191 1190 1191 1191 1192 1192 1192 1194 1194 1194 1193 1193 1193 1193 1194 1193 1193 1191 1192 1192 1193 1193 1192 1192 1192 1192 1191 1193 1193 1193 1192 1192 1191 1192 1193 1193 1193 1193 1194 1194 1194 1194 1194 1194 1194 1195 1194 1194 1195 1195 1196 1195 1196 1195 1196 1197 1198 1197 1195 1197 1198 1199 1199 1199 1198 1197 1198 1198 1199 1198 1199 1201 1201 1202 1202 1201 1202 1201 1202 1202 1202 1202 1202 1204 1203 1204 1203 1204 1203 1204 1205 1205 1204 1203 1204 1205 1204 1203 1204 1205 1206 1205 1204 1203 1203 1202 1202 1202 1200 1200 1202 1208 1211 1210 1209 1206 1204 1201 1199 1197 1194 1192 1190 1188 1184 1181 1177 1176 1172 1169 1164 1159 1158 1155 1152 1147 1144 1143 1140 1135 1126 1097 1056 1029 1023 1019 1017 1017 1027 0 0 0 0 1726 1741 1747 1759 1753 1724 1733 1733 1756 1764 1766 1766 1761 1771 0
    0 878 0 0 0 0 0 0 0 0 0 0 1348 1358 1380 1392 1399 1400 1406 1401 1385 1363 1377 1412 0 0 0 0 1700 1691 1699 1690 0 0 0 0 0 0 0 0 0 0 0 0 0 1015 1007 1008 1011 1015 1006 1003 1002 1002 1002 1003 1004 1005 1005 1004 1004 1005 1005 1005 1005 1005 1007 1008 1007 1006 1006 1005 1006 1005 1005 1005 1006 1006 1005 1005 1006 1006 1006 1006 1006 1007 1007 1006 1005 1006 1007 1006 1007 1007 1008 1007 1007 1010 1010 1009 1007 1006 1007 1008 1008 1008 1008 1008 1010 1015 1034 1068 1103 1122 1135 1146 1152 1158 1164 1169 1174 1177 1180 1184 1187 1190 1191 1192 1189 1186 1186 1187 1189 1190 1191 1192 1193 1195 1196 1197 1197 1197 1197 1198 1198 1199 1198 1199 1199 1198 1197 1196 1197 1197 1199 1198 1198 1198 1197 1197 1197 1197 1196 1196 1196 1196 1194 1196 1195 1195 1194 1195 1197 1197 1195 1193 1193 1192 1193 1193 1194 1195 1194 1193 1191 1192 1193 1193 1192 1192 1191 1192 1191 1192 1192 1192 1191 1191 1191 1193 1192 1193 1193 1191 1190 1189 1190 1189 1189 1188 1188 1188 1188 1189 1190 1189 1190 1191 1191 1191 1192 1192 1192 1190 1190 1190 1190 1191 1189 1189 1190 1190 1190 1189 1190 1189 1189 1188 1188 1187 1187 1188 1188 1189 1187 1187 1187 1188 1188 1188 1189 1190 1189 1188 1188 1189 1190 1192 1192 1191 1189 1189 1189 1189 1188 1189 1188 1188 1189 1190 1189 1188 1188 1189 1189 1187 1187 1187 1188 1188 1188 1189 1190 1188 1187 1187 1189 1188 1188 1188 1190 1190 1189 1189 1189 1190 1189 1189 1188 1187 1187 1189 1190 1190 1190 1189 1189 1189 1190 1190 1188 1189 1189 1190 1189 1191 1191 1191 1190 1190 1189 1190 1191 1192 1190 1190 1190 1190 1190 1190 1191 1192 1193 1192 1191 1191 1191 1192 1191 1190 1191 1192 1193 1191 1190 1190 1192 1192 1194 1194 1194 1194 1194 1195 1194 1194 1193 1193 1192 1191 1191 1191 1192 1193 1193 1193 1191 1192 1192 1193 1192 1194 1193 1193 1193 1193 1193 1193 1193 1194 1194 1194 1193 1194 1194 1195 1194 1194 1194 1194 1194 1195 1196 1197 1197 1197 1197 1197 1197 1198 1198 1197 1197 1197 1198 1198 1198 1198 1198 1198 1200 1200 1200 1200 1201 1202 1202 1202 1202 1202 1203 1202 1203 1203 1203 1203 1203 1204 1203 1202 1203 1205 1205 1204 1205 1205 1205 1203 1203 1204 1203 1204 1205 1206 1206 1205 1204 1203 1203 1202 1202 1201 1200 1200 1203 1209 1211 1210 1209 1207 1204 1200 1199 1198 1197 1193 1189 1186 1183 1180 1177 1176 1174 1171 1165 1161 1157 1154 1151 1148 1145 1144 1140 1137 1126 1098 1057 1031 1024 1022 1021 1020 1026 0 0 0 0 1731 1730 1744 1748 1733 1728 1724 1745 1751 1758 1761 1749 1777 1768 0
    0 1428 0 0 0 0 0 0 0 0 0 0 0 1434 1425 1398 1405 1403 1412 1407 1403 1394 1385 1371 0 0 0 0 0 0 1690 0 0 0 0 0 0 0 0 0 0 0 0 0 0 0 1027 1010 1012 1011 1006 1003 1002 1001 1001 1002 1004 1005 1005 1004 1004 1004 1006 1007 1006 1007 1008 1008 1007 1006 1005 1006 1006 1006 1006 1007 1006 1006 1006 1006 1006 1006 1007 1007 1006 1007 1008 1007 1005 1004 1005 1005 1006 1007 1008 1007 1007 1009 1009 1008 1005 1006 1007 1008 1009 1007 1008 1010 1012 1017 1036 1068 1102 1121 1133 1145 1152 1159 1163 1168 1173 1176 1180 1183 1187 1190 1192 1192 1190 1188 1187 1188 1189 1190 1192 1193 1194 1196 1197 1198 1197 1198 1197 1198 1198 1199 1197 1198 1197 1197 1197 1196 1197 1198 1198 1198 1197 1197 1197 1197 1198 1198 1197 1197 1196 1194 1193 1194 1196 1195 1194 1194 1196 1196 1195 1195 1194 1193 1192 1192 1193 1193 1194 1193 1191 1191 1192 1192 1193 1193 1193 1193 1193 1192 1192 1191 1192 1192 1191 1191 1191 1192 1191 1191 1190 1189 1190 1190 1189 1189 1188 1189 1188 1188 1189 1189 1190 1189 1189 1190 1191 1191 1190 1188 1189 1190 1191 1191 1189 1189 1189 1189 1189 1188 1188 1188 1188 1187 1188 1188 1188 1188 1187 1187 1187 1187 1188 1188 1189 1188 1190 1190 1190 1188 1188 1189 1190 1191 1190 1189 1189 1189 1190 1189 1188 1188 1188 1188 1188 1189 1189 1189 1189 1190 1190 1186 1186 1187 1190 1189 1188 1188 1190 1189 1188 1188 1189 1189 1189 1189 1191 1190 1189 1188 1189 1190 1189 1188 1188 1188 1188 1189 1190 1190 1189 1189 1188 1188 1189 1189 1189 1189 1189 1190 1191 1192 1191 1190 1189 1189 1189 1190 1191 1192 1192 1191 1190 1189 1191 1190 1191 1190 1191 1192 1191 1191 1191 1191 1191 1190 1189 1190 1191 1190 1190 1190 1191 1192 1194 1194 1194 1193 1192 1193 1193 1193 1193 1193 1192 1191 1191 1190 1190 1191 1191 1191 1190 1191 1192 1193 1193 1192 1192 1192 1193 1193 1193 1194 1194 1194 1195 1195 1195 1195 1196 1195 1194 1194 1194 1193 1194 1195 1196 1195 1195 1195 1196 1196 1196 1197 1196 1196 1197 1198 1198 1197 1197 1198 1197 1197 1199 1200 1200 1199 1201 1202 1202 1201 1202 1202 1203 1203 1204 1204 1204 1203 1203 1203 1202 1202 1202 1203 1204 1204 1205 1204 1204 1202 1203 1203 1204 1205 1205 1205 1205 1205 1204 1203 1202 1202 1202 1201 1200 1200 1203 1208 1210 1210 1209 1207 1204 1201 1199 1197 1195 1192 1187 1184 1182 1180 1177 1175 1173 1171 1166 1162 1156 1152 1149 1147 1145 1143 1140 1136 1125 1096 1056 1029 1023 1021 1022 1021 1023 0 0 1742 1730 1716 1719 1731 1717 1722 1719 1732 1741 1752 1760 1745 1756 1758 1775 0</data></EmptySandboxInsideBox>
</opencv_storage>
