<?xml version="1.0"?>
<opencv_storage>
<EmptySandboxInsideBox type_id="opencv-matrix">
  <rows>39</rows>
  <cols>512</cols>
  <dt>w</dt>
  <data>
    0 0 0 0 0 0 0 0 0 0 0 0 0 0 0 0 0 0 0 0 0 0 0 0 0 0 0 0 0 0 0 0 0 0 0 0 0 0 0 0 0 0 0 0 0 0 0 0 0 0 0 1832 0 0 0 0 0 0 0 0 0 0 0 0 0 0 0 0 0 0 0 0 0 0 0 0 0 0 0 0 0 0 0 0 0 0 0 0 0 1000 1027 1017 1030 1049 1072 1098 1092 1114 1109 1071 1054 1088 1132 1187 1197 1146 1118 1110 1093 1089 1087 1083 1071 0 0 0 0 0 1059 1058 1079 0 1106 1109 1108 1108 1105 1103 1100 1101 1106 1109 1111 1109 1112 1110 1113 1110 1114 1113 1116 1117 1118 1120 1119 1122 1120 1123 1123 1124 1123 1121 1122 1123 1123 1122 1123 1125 1125 1127 1125 1124 1123 1127 1124 1123 1125 1131 1133 1132 1132 1132 1132 1133 1135 1144 1162 1178 1169 1137 1136 1135 1137 1137 1139 1139 1137 1139 1139 1141 1143 1147 1148 1147 1148 1147 1144 1141 1142 1143 1143 1144 1145 1145 1142 1142 1142 1143 1143 1141 1141 1142 1143 1143 1143 1145 1145 1143 1142 1143 1145 1144 1143 1142 1144 1143 1146 1147 1146 1146 1147 1148 1144 1144 1148 1152 1151 1149 1149 1151 1151 1153 1152 1151 1151 1151 1153 1151 1153 1152 1152 1147 1146 1146 1149 1148 1148 1148 1147 1148 1149 1150 1150 1149 1150 1152 1151 1151 1151 1153 1152 1155 1156 1155 1151 1150 1151 1151 1152 1153 1153 1151 1149 1149 1148 1151 1152 1153 1154 1154 1153 1152 1151 1151 1152 1151 1152 1152 1150 1148 1150 1151 1151 1148 1148 1144 1147 1147 1151 1149 1149 1149 1149 1150 1151 1151 1150 1151 1153 1154 1152 1151 1149 1152 1152 1151 1147 1149 1152 1152 1148 1148 1151 1152 1151 1147 1147 1146 1147 1147 1148 1150 1151 1151 1150 1149 1146 1147 1148 1150 1149 1146 1146 1147 1146 1144 1141 1142 1144 1145 1148 1146 1144 1142 1143 1141 1140 1139 1141 1143 1141 1139 1137 1139 1140 1138 1138 1138 1137 1136 1136 1135 1131 1130 1130 1130 1129 1130 1130 1131 1129 1128 1128 1128 1129 1128 1128 1127 1129 1128 1131 1126 1127 1123 1123 1119 1119 1120 1121 1119 1118 1117 1115 1112 1104 1100 1096 1100 1097 1094 1084 1084 1086 1081 1076 1066 1062 1060 1060 1059 1057 1055 1063 1079 1098 1104 1114 1091 1065 1058 1066 1086 1132 1165 1194 1168 1144 1066 1066 1061 1059 1047 1054 1058 1069 1056 1044 1036 0 0 0 0 0 0 0 0 0 0 0 0 0 0 0 0 0 0 0 0 0 0 0 0 0 0 0 0 1810 0 0 0 0 0 0 0 0 0 0 0 0 0 0 0 0 0 0 0 0 0 0 0 0 0
    0 0 0 0 0 0 0 0 0 0 0 0 0 0 0 0 0 0 0 0 0 0 0 0 0 0 0 0 0 0 0 0 0 0 0 0 0 0 0 0 0 0 0 0 0 0 0 0 0 0 0 0 0 0 0 0 0 0 0 0 0 0 0 0 0 0 0 0 0 0 0 0 0 0 0 0 987 0 0 0 0 0 0 0 0 0 0 0 0 0 0 0 0 0 0 0 1068 1124 1146 1138 0 0 1218 1221 1212 1157 1145 1126 1124 1127 1122 1114 1063 0 0 0 0 0 992 0 1057 1094 1116 1100 1102 1109 1110 1108 1104 1104 1107 1111 1112 1112 1111 1112 1114 1115 1117 1117 1119 1121 1123 1124 1123 1124 1122 1126 1125 1126 1123 1123 1123 1124 1124 1123 1126 1127 1129 1127 1126 1127 1128 1131 1130 1128 1130 1131 1133 1132 1133 1134 1136 1138 1139 1145 1160 1179 1182 1152 1141 1139 1140 1142 1141 1140 1139 1142 1143 1144 1145 1147 1147 1149 1150 1149 1146 1145 1145 1147 1146 1145 1146 1147 1147 1145 1144 1145 1147 1146 1147 1146 1147 1147 1147 1148 1147 1147 1146 1150 1150 1149 1145 1145 1145 1146 1148 1148 1147 1148 1149 1150 1148 1148 1152 1154 1154 1152 1153 1156 1156 1158 1156 1154 1153 1154 1156 1155 1154 1154 1154 1152 1151 1150 1152 1153 1152 1153 1152 1153 1152 1153 1153 1153 1155 1155 1153 1152 1152 1156 1157 1160 1158 1157 1152 1152 1151 1153 1155 1157 1157 1156 1152 1153 1152 1156 1157 1159 1157 1157 1156 1156 1154 1154 1152 1153 1155 1156 1154 1153 1155 1154 1153 1151 1152 1149 1149 1151 1155 1154 1153 1151 1153 1153 1155 1155 1156 1157 1157 1157 1155 1154 1153 1153 1154 1152 1150 1151 1153 1154 1152 1152 1156 1157 1155 1150 1151 1151 1152 1152 1152 1154 1155 1156 1155 1154 1152 1151 1150 1150 1149 1149 1149 1152 1150 1147 1143 1144 1146 1148 1148 1147 1145 1145 1145 1145 1142 1143 1144 1146 1143 1142 1142 1145 1143 1141 1140 1141 1140 1140 1137 1135 1131 1133 1133 1134 1135 1136 1135 1133 1130 1131 1131 1132 1129 1131 1130 1128 1128 1130 1132 1130 1129 1128 1126 1122 1123 1125 1126 1124 1123 1122 1120 1117 1109 1103 1100 1103 1103 1103 1091 0 1089 1108 1112 1073 0 0 1068 1054 1061 1062 1067 1083 1097 1104 1090 1073 1060 1055 1076 1125 1164 1173 0 0 1079 1061 1068 1067 1062 1049 1056 1068 1075 1057 1030 0 0 0 0 0 0 0 0 0 0 0 0 0 0 0 0 0 0 0 0 0 0 0 0 0 0 0 0 0 0 0 0 0 0 0 0 0 0 0 0 0 0 0 0 0 0 0 0 0 0 0 0 0 0 0
    0 0 0 0 0 0 0 0 0 0 0 0 0 0 0 0 0 0 0 0 0 0 0 0 0 0 0 0 0 1826 0 0 0 0 0 0 0 0 0 0 0 0 0 0 0 0 0 0 0 0 0 0 0 0 1847 0 0 0 0 0 0 0 0 0 0 0 0 0 0 0 0 0 0 0 0 936 986 0 0 0 0 0 0 0 0 0 0 0 0 0 0 0 0 0 0 0 0 1118 1148 1147 1130 1142 1228 1242 1228 1214 1176 1136 1130 1135 1131 1114 1086 1055 0 0 0 0 0 0 0 1048 0 1098 1101 1109 1110 1109 1105 1107 1109 1115 1118 1118 1116 1116 1118 1119 1120 1120 1124 1126 1126 1126 1125 1127 1126 1128 1129 1129 1128 1128 1128 1127 1130 1131 1134 1134 1135 1131 1130 1130 1133 1134 1135 1135 1136 1136 1135 1135 1135 1136 1138 1139 1141 1143 1157 1173 1182 1163 1144 1139 1140 1143 1144 1144 1142 1144 1146 1148 1148 1148 1147 1149 1150 1151 1150 1147 1148 1149 1150 1147 1149 1150 1152 1150 1152 1150 1153 1153 1155 1152 1150 1151 1153 1154 1151 1150 1151 1155 1155 1154 1151 1150 1151 1150 1153 1152 1152 1150 1151 1153 1153 1153 1153 1154 1157 1156 1158 1157 1160 1159 1158 1155 1155 1157 1159 1158 1158 1158 1159 1156 1156 1155 1157 1156 1155 1153 1153 1153 1155 1156 1157 1158 1160 1159 1157 1157 1157 1158 1159 1161 1161 1160 1156 1155 1155 1158 1159 1163 1163 1162 1157 1156 1155 1160 1161 1162 1160 1160 1158 1158 1158 1158 1157 1157 1159 1159 1157 1155 1157 1157 1157 1156 1156 1155 1155 1155 1158 1157 1157 1154 1156 1158 1161 1161 1163 1162 1160 1158 1158 1157 1158 1158 1161 1158 1156 1154 1156 1156 1155 1156 1159 1160 1158 1155 1156 1157 1159 1157 1154 1154 1156 1161 1162 1162 1160 1158 1154 1154 1153 1154 1154 1156 1155 1151 1149 1148 1149 1150 1152 1151 1150 1148 1149 1147 1145 1145 1148 1149 1147 1145 1144 1144 1143 1143 1146 1146 1148 1146 1143 1140 1137 1138 1140 1140 1141 1140 1139 1136 1133 1133 1134 1135 1136 1136 1135 1134 1132 1132 1134 1133 1131 1129 1128 1127 1128 1128 1128 1126 1127 1124 1122 1119 1112 1109 1106 1106 1107 1105 0 0 0 0 0 0 0 0 0 0 0 0 1097 1090 1107 1088 0 1044 0 0 0 0 1146 0 0 0 1053 1067 1057 1065 1061 1049 1056 0 0 0 0 0 0 0 0 0 0 0 0 0 0 0 0 0 0 0 0 0 1682 0 0 0 0 0 0 0 0 0 0 0 0 0 0 0 0 0 0 0 0 0 0 0 0 0 0 0 0 0 0 0 0 0 0 0 0 0
    0 0 804 0 0 0 0 0 0 0 0 0 0 0 0 0 0 0 0 0 0 0 0 0 0 0 0 0 0 0 0 0 0 0 0 0 0 0 0 0 0 0 0 0 0 0 0 0 0 0 0 0 0 1820 0 0 0 0 0 0 0 0 0 0 0 0 0 1795 0 0 0 0 0 0 0 897 0 0 0 0 0 0 0 0 0 0 0 0 0 0 0 0 0 0 0 0 0 1075 1112 1125 1136 1130 1178 1229 1236 1239 1207 1191 1146 1147 1143 1125 1092 1083 0 0 0 0 0 0 0 0 1064 1057 1114 1105 1108 1107 1107 1108 1109 1111 1117 1121 1120 1121 1124 1127 1124 1125 1125 1128 1128 1128 1128 1131 1131 1133 1133 1134 1133 1133 1129 1129 1131 1134 1136 1136 1136 1132 1131 1133 1136 1137 1139 1139 1139 1137 1135 1137 1137 1140 1141 1142 1142 1143 1151 1169 1184 1182 1154 1144 1143 1148 1147 1147 1144 1148 1149 1151 1147 1148 1147 1150 1149 1151 1152 1152 1152 1154 1153 1150 1149 1150 1153 1155 1156 1155 1156 1158 1158 1155 1155 1158 1159 1158 1155 1154 1154 1157 1156 1156 1153 1154 1155 1155 1156 1157 1158 1155 1154 1154 1156 1157 1156 1157 1158 1159 1159 1161 1163 1163 1161 1159 1158 1161 1161 1163 1161 1163 1162 1161 1160 1159 1161 1160 1158 1156 1156 1157 1161 1161 1161 1162 1164 1163 1160 1160 1160 1162 1163 1165 1164 1162 1159 1159 1160 1163 1164 1167 1164 1164 1159 1160 1159 1164 1163 1165 1163 1163 1160 1161 1162 1163 1161 1162 1164 1164 1162 1161 1161 1161 1160 1160 1162 1161 1161 1160 1161 1161 1161 1160 1161 1163 1164 1165 1165 1165 1162 1160 1160 1161 1162 1162 1164 1163 1161 1159 1158 1158 1156 1157 1160 1161 1161 1158 1159 1160 1163 1162 1157 1156 1158 1165 1165 1167 1164 1163 1160 1159 1157 1157 1157 1158 1157 1157 1154 1153 1151 1151 1153 1154 1153 1151 1152 1152 1151 1152 1154 1154 1152 1149 1147 1146 1145 1145 1147 1148 1148 1148 1146 1145 1144 1143 1145 1143 1144 1143 1144 1140 1137 1136 1136 1139 1139 1139 1136 1135 1134 1136 1135 1137 1134 1134 1132 1132 1134 1134 1133 1127 1125 1121 1118 1116 1115 1114 1113 1108 1104 0 0 0 0 0 0 0 0 0 0 0 0 0 1086 1115 1102 0 0 0 0 0 0 1127 1154 0 0 0 0 0 0 0 0 0 0 0 0 0 0 0 0 0 0 0 0 0 0 0 0 0 0 0 0 0 0 0 0 0 0 0 0 0 0 0 0 0 0 0 0 0 0 0 0 0 0 0 0 0 0 0 0 0 0 0 0 0 0 0 0 0 0 0 0 0
    0 0 0 0 0 0 0 0 0 0 0 0 0 0 0 0 0 0 0 0 0 0 0 0 0 0 0 0 0 0 0 0 0 0 0 0 0 0 0 0 0 0 0 0 0 0 0 0 0 0 0 0 0 0 0 0 0 0 0 0 0 0 0 0 0 0 0 0 0 0 0 0 0 0 0 0 0 0 0 0 0 0 0 0 0 0 0 0 0 0 0 1082 0 0 0 0 0 1025 1096 1114 1125 1146 1184 1177 1235 1244 1260 1222 1209 1146 1137 1119 1107 1093 1083 1074 0 0 0 0 0 0 0 0 1088 1103 1107 1110 1112 1114 1114 1113 1119 1121 1124 1125 1129 1131 1128 1128 1128 1133 1132 1134 1133 1135 1134 1134 1134 1135 1136 1137 1134 1133 1136 1139 1141 1139 1138 1136 1135 1136 1139 1139 1141 1142 1144 1142 1141 1141 1142 1143 1144 1144 1145 1144 1151 1162 1180 1184 1164 1148 1147 1150 1148 1148 1146 1149 1150 1151 1149 1151 1153 1154 1152 1152 1153 1154 1155 1156 1156 1154 1153 1153 1156 1158 1159 1158 1158 1159 1160 1157 1159 1160 1163 1161 1162 1158 1158 1158 1160 1160 1158 1160 1159 1157 1158 1159 1163 1162 1161 1159 1162 1163 1162 1161 1162 1164 1164 1165 1165 1166 1164 1162 1162 1162 1163 1163 1164 1165 1166 1165 1164 1163 1164 1162 1162 1160 1162 1161 1165 1164 1165 1166 1167 1167 1165 1163 1164 1165 1165 1165 1167 1165 1163 1163 1164 1166 1167 1169 1167 1166 1164 1165 1165 1167 1165 1167 1166 1166 1163 1163 1165 1167 1166 1166 1166 1166 1166 1165 1165 1164 1165 1165 1166 1165 1165 1164 1163 1165 1165 1164 1164 1166 1167 1167 1166 1164 1163 1163 1162 1162 1163 1166 1168 1167 1165 1163 1162 1162 1161 1160 1162 1162 1164 1163 1164 1163 1165 1164 1161 1160 1162 1167 1167 1167 1165 1166 1164 1162 1160 1160 1160 1161 1161 1160 1159 1158 1157 1156 1158 1158 1158 1155 1154 1154 1156 1156 1158 1156 1154 1152 1148 1146 1147 1150 1152 1151 1151 1152 1153 1151 1150 1148 1150 1149 1149 1147 1147 1144 1142 1140 1141 1143 1145 1144 1142 1140 1141 1140 1138 1139 1140 1141 1139 1137 1138 1137 1135 1126 1122 1118 1117 1115 1115 1115 1115 1113 0 0 0 0 0 0 0 0 0 0 0 0 1075 1091 1123 1124 0 0 0 0 1787 0 0 1153 1212 0 0 0 0 0 0 0 0 0 0 0 0 0 0 0 0 0 0 0 0 0 0 0 1903 0 0 0 0 0 0 0 0 1790 0 0 0 0 0 0 0 0 0 0 0 0 0 0 0 0 0 0 0 0 0 0 0 0 0 0 0 0 0 0 0 0 0 0 0 0
    0 0 0 0 0 0 0 0 0 0 0 0 0 0 0 0 0 0 0 0 0 0 0 0 0 0 0 0 0 0 0 0 0 0 0 0 0 0 0 0 1834 0 0 0 0 0 0 0 0 0 0 0 0 0 0 0 0 0 0 0 0 0 0 0 0 0 0 0 0 0 0 0 0 0 0 0 0 0 0 0 0 0 0 0 0 0 0 0 1046 0 0 1081 1042 0 0 0 0 1059 1078 1093 1127 1142 1145 1204 1222 1251 1267 1262 1188 1166 1115 1108 1107 1097 1087 1089 0 0 0 0 0 0 0 0 1081 1095 1111 1112 1115 1117 1118 1115 1116 1119 1124 1128 1129 1132 1129 1131 1129 1134 1133 1137 1136 1139 1139 1139 1138 1138 1138 1139 1137 1138 1137 1140 1140 1141 1139 1139 1138 1138 1140 1143 1145 1146 1148 1146 1145 1144 1146 1147 1148 1150 1150 1147 1149 1159 1175 1186 1177 1158 1153 1154 1151 1150 1150 1153 1153 1153 1153 1156 1159 1160 1158 1156 1155 1157 1157 1159 1158 1159 1158 1158 1158 1161 1161 1162 1161 1161 1161 1160 1162 1162 1164 1164 1165 1162 1161 1163 1165 1165 1163 1164 1162 1160 1159 1162 1167 1167 1165 1163 1165 1167 1165 1166 1164 1168 1166 1169 1168 1172 1169 1169 1166 1165 1166 1167 1168 1169 1169 1168 1168 1168 1169 1167 1167 1166 1168 1167 1168 1168 1168 1169 1170 1170 1167 1165 1166 1168 1168 1168 1169 1168 1167 1167 1168 1169 1170 1171 1168 1168 1165 1167 1167 1169 1167 1169 1169 1169 1166 1165 1166 1167 1169 1171 1171 1169 1169 1169 1168 1166 1166 1167 1170 1170 1170 1170 1167 1168 1166 1166 1165 1168 1169 1167 1165 1164 1166 1166 1165 1164 1165 1167 1167 1167 1166 1166 1166 1167 1166 1164 1165 1164 1164 1165 1167 1169 1169 1168 1166 1165 1167 1168 1166 1165 1166 1169 1168 1166 1166 1165 1164 1165 1164 1164 1162 1164 1162 1161 1161 1161 1161 1159 1157 1158 1158 1159 1157 1156 1155 1155 1152 1151 1150 1154 1153 1153 1152 1154 1155 1154 1153 1150 1150 1150 1149 1149 1150 1149 1147 1146 1148 1150 1149 1146 1142 1141 1141 1143 1141 1143 1143 1146 1144 1140 1139 1137 1136 1130 1125 1119 1118 1117 1118 1118 1117 0 0 0 0 0 0 0 0 0 0 0 0 1084 1074 1122 1142 0 0 0 0 0 0 0 1154 1214 1253 0 0 0 0 0 0 0 0 0 0 0 0 0 0 0 0 0 0 0 0 0 0 0 0 0 0 0 0 0 0 0 1871 0 0 0 0 1889 0 1733 0 0 0 0 0 0 0 0 0 0 0 0 0 0 0 0 0 0 0 0 0 0 0 0 0 0 0 0 0 0
    0 0 0 0 0 0 0 0 0 0 0 0 0 0 0 0 0 0 0 0 0 0 921 0 7478 0 0 0 0 0 0 0 0 0 0 0 0 0 0 0 1839 0 0 0 0 0 0 0 0 0 0 0 0 0 0 0 0 0 0 0 0 0 0 0 0 0 0 0 0 1011 1057 1053 1085 1071 1068 0 1063 0 0 0 1093 1091 1078 1087 1133 0 1105 1125 1103 1073 1069 1097 1103 1090 1129 1098 1121 0 1086 1068 1129 1132 1130 1180 1223 1233 1237 1241 1223 0 0 1120 1112 1125 1110 1103 1130 0 0 0 0 0 0 0 0 0 1102 1114 1116 1119 1123 1122 1121 1120 1125 1132 1134 1134 1133 1135 1136 1139 1140 1141 1142 1142 1143 1142 1141 1143 1144 1144 1144 1143 1143 1143 1143 1144 1143 1144 1144 1143 1145 1145 1147 1148 1151 1149 1149 1147 1150 1150 1152 1153 1154 1153 1153 1157 1169 1181 1184 1168 1158 1156 1154 1152 1154 1155 1157 1157 1160 1160 1163 1162 1162 1160 1159 1159 1160 1160 1159 1159 1162 1162 1163 1163 1163 1163 1163 1165 1165 1164 1164 1163 1164 1166 1167 1167 1168 1168 1170 1169 1169 1169 1165 1163 1162 1164 1168 1168 1167 1166 1169 1171 1170 1168 1168 1170 1170 1172 1170 1174 1173 1173 1170 1168 1169 1169 1170 1171 1171 1172 1172 1172 1172 1170 1172 1172 1173 1173 1173 1172 1170 1171 1172 1172 1170 1168 1170 1171 1171 1171 1171 1172 1170 1171 1171 1172 1172 1173 1172 1170 1169 1170 1170 1171 1169 1170 1171 1172 1172 1170 1170 1170 1172 1173 1172 1170 1170 1170 1171 1169 1169 1168 1170 1171 1173 1173 1171 1170 1168 1168 1169 1172 1173 1170 1169 1168 1171 1170 1170 1168 1168 1168 1169 1170 1168 1168 1169 1171 1171 1169 1169 1168 1166 1166 1168 1171 1172 1172 1172 1170 1171 1169 1168 1166 1168 1169 1169 1168 1170 1170 1170 1168 1168 1167 1165 1166 1166 1166 1164 1164 1162 1161 1160 1159 1161 1160 1160 1158 1158 1159 1155 1155 1156 1158 1156 1155 1157 1159 1159 1158 1156 1155 1152 1154 1152 1153 1151 1151 1149 1150 1152 1154 1153 1152 1149 1147 1144 1145 1146 1149 1148 1148 1146 1143 1142 1139 1137 1132 1128 1123 1122 1121 1121 1122 1116 0 0 0 0 0 0 0 0 0 0 0 1033 1114 1142 1132 1138 0 0 0 1793 0 0 1112 1183 1191 0 0 0 0 0 0 0 0 0 0 0 1855 1787 0 0 0 0 0 0 1751 0 0 0 0 0 0 0 0 0 0 0 0 0 0 1722 1753 1876 0 1782 0 0 0 0 0 0 1751 0 0 0 0 0 0 0 0 0 0 0 0 0 0 0 0 0 0 0 0 0 0 1851 0
    0 7452 0 0 0 0 1714 0 0 0 0 0 0 0 0 0 0 0 0 0 0 0 0 0 0 0 0 0 0 0 0 0 0 0 0 0 0 0 0 0 0 0 0 0 0 0 0 0 0 0 0 0 0 0 0 1136 0 0 0 0 0 0 1084 1094 1040 1096 1086 1087 1090 1086 1078 1092 1118 1098 1069 1068 1058 1102 1092 1092 1093 1100 1077 1083 1107 1128 1109 1106 1110 1084 1088 1098 1111 1109 1106 1136 1097 0 0 1076 1087 1109 1113 1133 1157 1229 1230 1231 1235 1226 1206 1168 1143 1132 1127 1108 1145 1153 0 0 0 0 0 0 0 0 1101 1108 1114 1118 1123 1124 1125 1124 1130 1136 1137 1137 1136 1140 1142 1141 1139 1140 1142 1144 1146 1146 1144 1145 1144 1146 1145 1148 1147 1147 1146 1149 1148 1148 1147 1148 1150 1151 1151 1152 1152 1152 1150 1151 1153 1155 1155 1157 1157 1157 1155 1158 1167 1179 1186 1179 1163 1160 1157 1158 1159 1161 1163 1162 1163 1163 1164 1165 1165 1165 1163 1163 1165 1165 1163 1162 1163 1164 1164 1165 1166 1167 1166 1167 1166 1166 1165 1166 1165 1168 1168 1170 1171 1172 1171 1172 1170 1170 1169 1169 1169 1171 1173 1172 1169 1169 1170 1172 1174 1173 1171 1171 1172 1175 1174 1177 1175 1176 1174 1173 1173 1174 1175 1175 1175 1174 1174 1174 1175 1175 1176 1176 1175 1176 1175 1176 1174 1175 1175 1175 1173 1172 1173 1175 1176 1177 1176 1176 1174 1174 1174 1175 1175 1176 1176 1175 1173 1174 1174 1175 1174 1177 1178 1177 1177 1175 1173 1172 1174 1177 1176 1176 1175 1175 1174 1174 1173 1173 1174 1175 1175 1176 1174 1173 1172 1174 1174 1175 1174 1174 1172 1173 1174 1173 1174 1172 1172 1170 1172 1173 1171 1171 1172 1175 1173 1172 1171 1172 1169 1169 1170 1175 1176 1176 1175 1175 1174 1173 1171 1172 1173 1173 1172 1170 1171 1172 1172 1170 1170 1169 1166 1167 1166 1168 1165 1166 1164 1164 1164 1164 1165 1163 1163 1163 1163 1163 1159 1161 1160 1160 1156 1157 1159 1162 1162 1161 1158 1158 1156 1158 1157 1157 1154 1154 1152 1153 1153 1155 1153 1154 1149 1150 1145 1147 1146 1150 1148 1148 1145 1143 1142 1141 1138 1136 1132 1129 1125 1125 1128 1131 1110 0 0 0 0 0 0 0 0 0 1114 1050 1091 1108 1122 0 1081 0 0 0 0 0 0 0 0 1188 0 0 0 0 0 0 0 0 0 0 0 0 0 1841 0 0 1695 0 0 0 0 0 0 0 0 0 0 0 0 0 0 0 0 0 0 0 1817 1842 0 0 0 0 0 0 1808 1745 0 0 0 0 0 0 0 0 0 0 0 0 0 0 0 0 0 0 0 0 0 0 0 0
    0 970 0 0 0 0 1734 0 0 0 0 0 0 0 0 0 0 0 0 0 0 0 0 0 0 0 0 0 0 0 0 0 0 0 0 0 0 0 0 0 0 0 0 0 0 0 0 0 0 0 0 1084 0 0 1124 0 1122 0 1025 1090 1108 1107 1099 1090 1096 1081 1105 1094 1099 1086 1080 1084 1094 1103 1090 1074 1080 1087 1091 1094 1104 1114 1086 1082 1092 1099 1094 1096 1095 1085 1087 1088 1095 1100 1100 1094 1090 1127 0 0 1083 1100 1111 1114 1172 1232 1251 1228 1235 1245 1240 1209 1158 1136 1144 1138 1131 1140 0 0 0 0 0 0 0 1025 1108 1113 1118 1123 1126 1126 1130 1129 1135 1139 1142 1141 1142 1145 1149 1146 1145 1143 1146 1147 1147 1148 1147 1147 1147 1148 1148 1151 1152 1151 1149 1151 1151 1151 1152 1154 1155 1153 1153 1156 1157 1156 1154 1156 1161 1161 1159 1158 1159 1160 1160 1161 1167 1177 1185 1185 1172 1164 1161 1160 1162 1164 1168 1167 1167 1165 1167 1167 1168 1167 1165 1166 1169 1168 1167 1164 1165 1166 1166 1167 1168 1168 1168 1169 1169 1169 1168 1169 1169 1170 1171 1173 1174 1174 1172 1172 1173 1172 1173 1172 1173 1173 1176 1176 1174 1171 1174 1175 1178 1177 1176 1174 1175 1177 1177 1178 1178 1179 1179 1177 1177 1177 1178 1178 1178 1179 1178 1176 1177 1178 1180 1180 1179 1177 1177 1179 1178 1179 1179 1180 1179 1178 1178 1179 1180 1180 1180 1179 1177 1177 1177 1177 1179 1180 1181 1178 1178 1178 1179 1179 1178 1180 1181 1181 1181 1180 1179 1178 1178 1180 1180 1181 1180 1179 1179 1179 1179 1178 1178 1177 1177 1178 1177 1177 1177 1178 1178 1178 1178 1179 1177 1178 1178 1177 1177 1175 1176 1174 1176 1176 1176 1176 1177 1177 1176 1176 1177 1177 1174 1174 1174 1176 1177 1178 1177 1177 1176 1176 1175 1176 1177 1176 1175 1171 1172 1172 1174 1172 1172 1170 1169 1169 1169 1170 1168 1169 1168 1166 1166 1166 1168 1167 1167 1168 1169 1167 1165 1164 1164 1162 1159 1159 1161 1165 1164 1163 1161 1160 1159 1161 1161 1161 1159 1157 1156 1155 1155 1155 1157 1159 1155 1154 1150 1151 1150 1153 1152 1150 1148 1147 1146 1145 1140 1138 1135 1135 1130 1128 1131 0 0 0 0 0 0 0 0 0 0 1126 1079 1082 1071 1070 0 0 0 0 0 1812 0 0 0 0 1195 0 0 0 0 0 0 0 0 0 0 0 0 0 0 0 0 0 1857 0 0 0 0 1710 0 0 0 0 0 0 0 0 0 0 0 0 0 0 0 0 1791 0 0 0 0 0 0 1761 0 0 0 0 0 0 0 0 0 0 0 0 0 0 0 0 0 0 0 0 0 0 0 0
    0 1019 0 0 0 0 0 0 0 929 0 0 0 0 0 0 0 0 0 0 0 1094 1105 0 0 0 0 0 0 0 0 0 0 0 0 1051 0 0 1092 1030 0 1044 0 0 1133 0 1106 1125 0 0 1088 1124 1130 1116 1130 1117 1114 1078 1059 1074 1108 1098 1082 1087 1076 1082 1091 1098 1095 1091 1082 1077 1087 1099 1103 1110 1084 1087 1087 1105 1116 1113 1102 1092 1085 1092 1091 1088 1090 1085 1084 1076 1082 1090 1096 1093 1101 1095 1107 0 1105 1095 1090 1120 1148 1256 1233 1233 1232 1240 1236 1220 1174 1158 1153 1150 1124 1117 1139 1097 0 0 0 0 0 0 0 1113 1120 1123 1127 1127 1132 1132 1139 1140 1144 1143 1147 1151 1153 1150 1144 1143 1145 1149 1150 1152 1148 1148 1147 1149 1152 1156 1154 1154 1153 1156 1155 1156 1157 1160 1160 1159 1158 1160 1160 1161 1159 1160 1163 1163 1162 1161 1162 1163 1164 1164 1166 1174 1183 1190 1182 1171 1166 1166 1167 1169 1169 1169 1168 1168 1169 1171 1171 1170 1168 1169 1169 1171 1170 1169 1169 1169 1170 1170 1171 1172 1171 1172 1171 1173 1173 1173 1174 1175 1175 1174 1174 1174 1174 1175 1175 1175 1175 1175 1175 1175 1177 1178 1177 1176 1177 1178 1180 1180 1178 1178 1179 1181 1181 1181 1180 1182 1181 1181 1179 1180 1181 1181 1181 1183 1181 1180 1179 1180 1184 1184 1181 1178 1179 1182 1182 1182 1181 1183 1181 1182 1180 1182 1184 1185 1185 1183 1181 1179 1179 1180 1183 1185 1184 1182 1182 1183 1182 1182 1183 1185 1185 1184 1182 1181 1181 1181 1181 1182 1182 1184 1183 1183 1182 1183 1183 1183 1182 1181 1181 1181 1180 1181 1181 1182 1181 1181 1181 1181 1179 1180 1181 1181 1179 1178 1179 1179 1180 1179 1180 1180 1180 1179 1179 1181 1180 1180 1178 1179 1177 1178 1176 1179 1178 1181 1180 1181 1178 1179 1181 1181 1180 1175 1174 1173 1174 1174 1173 1171 1171 1172 1172 1173 1172 1174 1172 1170 1168 1169 1169 1169 1168 1172 1172 1170 1168 1167 1166 1164 1162 1162 1162 1166 1166 1165 1162 1162 1164 1163 1163 1163 1162 1161 1160 1160 1159 1159 1161 1161 1157 1156 1154 1154 1152 1153 1154 1153 1152 1150 1146 1145 1140 1142 1139 1141 1136 1133 1138 0 0 0 0 0 0 0 0 1150 1131 1124 1099 1054 1041 1058 0 0 0 0 0 0 0 0 1222 0 0 0 0 0 0 0 0 1689 0 1759 0 0 0 0 0 0 0 0 0 0 1861 0 0 0 0 0 0 0 0 0 0 0 0 0 0 0 0 0 0 0 0 0 0 0 0 0 0 0 0 0 0 0 0 0 0 0 0 0 0 0 0 1849 0 0 0 0 0 0 1757 0 0 0
    0 0 0 0 0 0 0 0 0 962 962 0 0 0 0 0 0 0 0 0 1007 0 993 0 0 0 0 0 0 0 0 0 0 0 0 1046 0 1087 1119 0 1029 1055 0 0 0 1086 1085 1114 1147 1125 0 1129 0 1112 1106 1114 1095 1072 1061 1083 1094 1080 1071 1079 1077 1066 1090 1099 1104 1093 1086 1076 1078 1100 1107 1102 1101 1086 1096 1112 1111 1119 1109 1097 1092 1096 1104 1109 1096 1086 1085 1079 1086 1096 1100 1107 1108 1105 1078 1102 0 1106 1091 1113 1174 1214 1235 1222 1224 1229 1230 1224 1207 1159 1151 1152 1143 1130 1125 1129 1138 1159 0 0 0 0 0 0 1118 1118 1130 1129 1134 1133 1141 1142 1145 1146 1150 1154 1157 1156 1153 1150 1150 1153 1154 1155 1154 1153 1152 1153 1156 1157 1156 1157 1158 1161 1159 1158 1159 1161 1163 1162 1163 1163 1164 1163 1163 1162 1165 1164 1165 1164 1166 1166 1168 1167 1169 1174 1183 1190 1191 1180 1173 1170 1171 1171 1170 1170 1171 1170 1172 1172 1173 1171 1171 1171 1172 1171 1172 1172 1173 1172 1174 1173 1174 1174 1174 1174 1175 1176 1177 1176 1179 1179 1180 1178 1178 1177 1177 1177 1180 1179 1179 1177 1177 1176 1177 1178 1180 1179 1179 1179 1180 1181 1182 1182 1183 1183 1185 1184 1185 1184 1183 1183 1182 1183 1182 1183 1183 1185 1186 1184 1183 1182 1186 1186 1185 1181 1183 1185 1187 1186 1186 1186 1185 1185 1184 1184 1185 1186 1187 1186 1185 1183 1183 1184 1186 1187 1187 1184 1183 1185 1185 1185 1185 1186 1185 1184 1184 1184 1184 1184 1185 1184 1183 1184 1184 1184 1185 1186 1187 1185 1184 1185 1185 1186 1185 1185 1184 1183 1184 1183 1185 1183 1183 1182 1185 1186 1184 1183 1182 1182 1181 1181 1183 1184 1182 1181 1183 1185 1186 1184 1182 1182 1181 1180 1179 1180 1181 1183 1183 1182 1181 1181 1184 1184 1183 1179 1178 1177 1179 1179 1179 1176 1177 1178 1178 1177 1177 1176 1174 1172 1170 1173 1172 1172 1171 1173 1174 1173 1173 1171 1171 1170 1168 1168 1168 1169 1168 1167 1166 1167 1166 1165 1164 1165 1164 1162 1163 1164 1166 1163 1165 1163 1160 1158 1158 1160 1159 1157 1156 1154 1155 1154 1149 1146 1142 1141 1139 1144 1146 1155 0 0 0 0 0 0 0 1061 1121 1136 1138 1124 1114 1045 1029 0 0 0 0 0 0 0 0 1212 1202 1168 0 0 0 0 0 0 0 1741 1748 0 0 0 0 0 0 1793 1773 0 0 0 1793 0 0 0 0 0 0 0 0 0 0 0 0 0 0 1814 0 0 0 0 0 0 0 0 0 0 0 0 0 0 0 0 0 0 0 0 0 0 0 0 0 0 0 0 0 0 0 0 0 0 0 0
    0 0 0 0 931 0 0 0 0 0 1006 0 0 1103 0 0 0 0 0 0 0 1057 0 0 0 0 0 0 0 0 1023 1076 1123 0 0 1127 0 1081 1105 1087 1083 1083 1084 1026 0 1058 1086 1113 1142 1149 1126 1106 1113 1098 1097 1078 1083 1078 1074 1090 1090 1078 1073 1079 1080 1080 1082 1098 1103 1105 1093 1089 1089 1103 1103 1099 1083 1095 1098 1097 1100 1105 1104 1089 1088 1104 1122 1105 1105 1096 1099 1098 1109 1099 1098 1103 1110 1098 1092 1103 1131 1130 1076 1119 1154 1176 1202 1209 1210 1218 1230 1231 1222 1188 1155 1157 1164 1162 0 1125 1174 1166 1168 0 0 0 0 0 0 1113 1130 1132 1134 1135 1140 1142 1147 1149 1152 1156 1158 1159 1156 1154 1153 1155 1157 1160 1160 1160 1158 1157 1157 1158 1158 1160 1162 1164 1162 1161 1162 1164 1166 1166 1167 1166 1166 1165 1164 1164 1165 1165 1167 1167 1169 1169 1171 1171 1173 1175 1182 1188 1193 1188 1178 1174 1173 1174 1173 1174 1173 1172 1173 1176 1175 1173 1172 1174 1175 1175 1175 1175 1176 1176 1177 1177 1178 1178 1178 1177 1177 1177 1179 1180 1182 1182 1182 1179 1179 1179 1180 1181 1181 1181 1181 1180 1180 1180 1179 1179 1179 1181 1181 1181 1181 1183 1184 1185 1185 1186 1187 1186 1185 1185 1185 1186 1184 1187 1185 1185 1184 1187 1189 1189 1187 1185 1187 1188 1188 1187 1187 1188 1189 1188 1188 1187 1188 1188 1187 1187 1189 1190 1190 1189 1190 1189 1188 1187 1188 1189 1188 1186 1186 1188 1188 1188 1187 1187 1187 1187 1187 1186 1186 1186 1186 1185 1184 1185 1185 1185 1186 1189 1190 1188 1187 1188 1187 1189 1186 1187 1186 1187 1188 1187 1188 1186 1187 1185 1188 1188 1187 1186 1184 1186 1184 1185 1185 1186 1184 1183 1185 1188 1187 1187 1185 1185 1184 1183 1182 1182 1183 1185 1186 1186 1185 1186 1187 1186 1184 1182 1182 1181 1182 1184 1184 1183 1181 1182 1181 1180 1179 1177 1175 1175 1175 1176 1174 1174 1174 1177 1178 1177 1175 1174 1175 1174 1173 1173 1172 1173 1172 1172 1172 1173 1171 1169 1166 1168 1165 1164 1162 1165 1167 1167 1168 1167 1165 1163 1163 1163 1162 1161 1158 1158 1156 1154 1149 1149 1145 1144 1141 1147 1162 0 0 0 0 0 0 0 0 1114 1126 1138 1146 1143 1078 1089 1058 0 0 1740 1733 0 0 0 0 1227 1204 0 0 0 0 0 0 1770 1767 0 1765 0 0 1729 0 0 0 1813 0 1789 0 0 1778 0 0 0 1743 0 0 0 0 0 0 1625 0 0 0 1780 0 0 0 0 0 0 0 1756 0 0 0 0 0 0 0 0 0 0 0 0 0 0 0 0 0 0 0 0 0 0 0 0 0 0 0 0
    0 0 0 0 0 0 1029 960 0 1048 1074 1081 1084 1084 1094 1091 1089 1089 1108 1088 0 0 0 1071 1024 1038 1083 0 1050 1006 1033 1102 1113 1080 1112 1115 1072 1062 1090 1093 1081 0 1075 0 1071 1100 1075 1131 1147 0 1110 1113 1117 1113 1108 1084 1082 1052 1104 1087 1089 1081 1074 1087 1097 1088 1080 1072 1090 1105 1103 1107 1110 1115 1101 1097 1088 1084 1098 1091 1094 1100 1100 1090 1087 1093 1103 1098 1102 1101 1100 1094 1097 1090 1088 1096 1101 1094 1088 1106 1123 1128 1140 0 1149 1164 1179 1185 1190 1209 1229 1237 1230 1220 1201 1169 1165 1161 1160 0 0 1185 1172 1172 0 0 0 0 0 1115 1138 1139 1143 1143 1146 1145 1150 1152 1156 1158 1160 1162 1162 1159 1158 1158 1162 1164 1165 1166 1165 1164 1162 1162 1163 1165 1166 1167 1166 1165 1164 1165 1168 1167 1167 1167 1170 1168 1168 1167 1170 1169 1172 1171 1174 1172 1174 1173 1176 1176 1179 1184 1192 1192 1186 1178 1177 1176 1176 1177 1178 1177 1177 1178 1178 1175 1176 1178 1180 1179 1179 1179 1178 1179 1179 1179 1179 1180 1180 1178 1179 1178 1181 1182 1185 1183 1184 1182 1184 1184 1185 1184 1185 1185 1186 1185 1186 1184 1184 1184 1184 1184 1184 1184 1186 1186 1187 1186 1186 1186 1188 1188 1188 1187 1188 1189 1188 1190 1189 1188 1185 1187 1190 1192 1190 1189 1189 1190 1191 1190 1190 1190 1191 1190 1191 1190 1192 1190 1191 1190 1192 1191 1191 1191 1192 1192 1191 1190 1191 1190 1190 1189 1189 1190 1190 1191 1188 1187 1186 1188 1190 1189 1190 1190 1190 1188 1188 1188 1187 1187 1189 1192 1194 1192 1190 1190 1190 1191 1190 1190 1190 1190 1190 1189 1190 1189 1191 1189 1190 1190 1189 1188 1187 1188 1188 1188 1188 1188 1186 1185 1186 1189 1190 1188 1188 1187 1188 1187 1188 1187 1187 1186 1186 1186 1186 1187 1187 1185 1185 1184 1185 1184 1185 1186 1186 1185 1184 1184 1184 1181 1180 1179 1178 1178 1180 1180 1179 1178 1179 1181 1181 1180 1179 1178 1178 1177 1177 1177 1177 1176 1176 1176 1177 1177 1174 1172 1171 1172 1170 1168 1167 1170 1171 1172 1173 1171 1169 1166 1166 1166 1165 1164 1163 1162 1159 1157 1153 1152 1147 1144 1141 0 0 0 0 0 1025 0 0 0 1150 1137 1134 1134 1140 1135 1107 1099 1067 1059 0 0 0 0 0 1188 1221 1209 0 0 0 0 1692 0 0 1785 1765 1801 1731 1732 1745 1733 1729 0 0 1780 1784 0 1704 1814 0 0 1787 0 1749 1749 0 1689 0 0 1647 1646 0 0 0 0 0 0 0 0 0 0 0 0 0 0 0 0 0 0 0 0 0 0 0 0 0 0 0 0 0 0 0 0 0 0 0 0 0 0 0 0
    0 1021 1043 1039 0 0 0 1053 1048 1063 1076 1073 1078 1080 1086 1087 1089 1089 1093 0 1132 0 0 1044 1024 1078 1101 1096 1026 1067 1096 1098 1094 1101 1118 1074 1067 1086 1128 1100 1098 1086 1090 1117 1131 0 1088 1077 1122 1139 0 1118 1132 1134 1111 1099 1083 1100 1099 1081 1084 1078 1080 1093 1113 1102 1081 1076 1094 1118 1119 1109 1114 1112 1093 1094 1089 1088 1085 1094 1103 1097 1091 1081 1086 1092 1097 1094 1105 1101 1094 1086 1089 1088 1088 1088 1093 1087 1086 1096 1117 1129 1133 0 0 0 1158 1163 1159 1178 1203 1239 1232 1225 1214 1183 1153 1140 1171 0 0 0 0 1163 1154 1165 1177 1187 1150 0 0 1148 1151 1151 1151 1151 1153 1156 1159 1160 1161 1163 1164 1163 1162 1163 1165 1167 1168 1169 1169 1169 1166 1166 1166 1168 1169 1171 1170 1169 1168 1171 1171 1169 1168 1170 1174 1174 1173 1173 1174 1175 1175 1174 1175 1174 1176 1176 1178 1177 1177 1182 1191 1197 1194 1185 1180 1179 1180 1182 1182 1182 1181 1181 1180 1179 1179 1182 1181 1183 1184 1184 1183 1183 1182 1182 1181 1183 1183 1182 1183 1184 1186 1187 1187 1185 1184 1184 1187 1187 1187 1187 1187 1188 1189 1190 1191 1191 1189 1188 1187 1188 1188 1189 1190 1190 1190 1190 1189 1189 1190 1191 1192 1193 1192 1193 1192 1194 1193 1192 1190 1191 1193 1194 1190 1191 1192 1195 1195 1194 1193 1192 1193 1192 1193 1192 1194 1194 1196 1194 1194 1194 1195 1195 1196 1195 1194 1194 1194 1193 1191 1191 1192 1193 1193 1194 1192 1193 1191 1193 1193 1192 1192 1193 1193 1192 1191 1191 1190 1190 1191 1193 1194 1194 1193 1194 1194 1194 1192 1192 1193 1195 1195 1194 1192 1192 1192 1192 1191 1192 1191 1190 1188 1190 1191 1192 1190 1190 1188 1189 1188 1192 1191 1191 1190 1189 1189 1188 1189 1189 1189 1189 1190 1190 1189 1189 1187 1186 1186 1187 1188 1188 1187 1188 1187 1186 1185 1186 1185 1184 1184 1183 1181 1181 1182 1183 1182 1182 1182 1184 1182 1181 1179 1178 1179 1179 1181 1179 1179 1179 1179 1180 1180 1179 1176 1174 1173 1175 1173 1173 1172 1175 1176 1176 1176 1174 1172 1170 1169 1168 1167 1166 1166 1166 1160 1158 1152 1154 1151 1150 1145 0 0 0 0 0 1021 0 0 1170 1154 1143 1134 1129 1124 1120 1102 0 0 0 0 0 0 0 1226 1220 1203 0 0 0 1744 1727 0 0 0 1731 1783 1768 1738 1736 1729 1739 1709 0 1781 1786 0 0 1845 1868 1800 0 0 1690 1739 0 0 1660 1705 0 0 1695 0 0 0 0 0 0 0 0 0 0 0 0 0 0 0 0 0 0 0 0 0 0 0 0 0 0 0 0 0 0 0 0 1774 0 0 0 0 0 0 0
    0 1052 1050 1060 1080 0 0 1025 1067 1067 1070 1069 1078 1080 1081 1082 1086 1092 1103 1122 1111 1106 0 0 1056 1044 1128 1137 1075 1084 1058 1098 1056 1076 1132 1070 1064 1131 0 1128 1122 1117 1095 1114 1138 1104 1073 1063 1095 1086 0 1099 1147 1123 1129 1117 1118 1121 1098 1080 1083 1075 1079 1109 1120 1115 1097 1090 1110 1127 1121 1103 1094 1102 1091 1092 1101 1100 1092 1103 1106 1106 1096 1093 1096 1101 1098 1097 1101 1099 1093 1086 1093 1098 1095 1090 1086 1092 1091 1105 1114 1114 1107 1096 0 0 1129 1133 1159 1166 1162 1216 1221 1215 1208 1189 1140 1125 1130 0 0 0 0 0 1138 1156 1174 1186 1169 1187 1150 1156 1163 1158 1157 1156 1158 1158 1160 1162 1164 1166 1167 1167 1168 1170 1169 1167 1168 1170 1171 1171 1171 1169 1170 1170 1174 1177 1176 1174 1172 1174 1176 1174 1174 1174 1176 1177 1179 1178 1178 1179 1179 1178 1178 1178 1180 1179 1180 1178 1177 1181 1189 1197 1202 1197 1189 1184 1183 1184 1186 1186 1186 1183 1182 1182 1185 1186 1186 1186 1187 1186 1185 1185 1186 1185 1184 1184 1186 1186 1188 1189 1191 1190 1190 1187 1189 1188 1192 1191 1191 1190 1191 1193 1194 1194 1196 1195 1194 1193 1193 1193 1192 1192 1193 1194 1194 1194 1192 1192 1193 1194 1197 1197 1195 1195 1195 1196 1196 1194 1193 1193 1194 1195 1194 1194 1195 1197 1197 1198 1197 1197 1197 1195 1195 1193 1196 1196 1199 1198 1198 1197 1197 1198 1198 1196 1196 1196 1197 1196 1196 1195 1195 1195 1195 1195 1195 1195 1194 1195 1195 1194 1194 1194 1195 1194 1194 1193 1194 1194 1195 1196 1197 1197 1195 1196 1196 1197 1197 1196 1198 1197 1197 1195 1195 1196 1196 1195 1194 1195 1195 1194 1193 1192 1194 1195 1195 1193 1191 1191 1192 1194 1194 1193 1192 1190 1190 1190 1192 1192 1191 1191 1191 1191 1190 1190 1190 1190 1190 1190 1190 1189 1190 1189 1189 1187 1188 1187 1188 1186 1187 1186 1185 1186 1186 1186 1187 1186 1187 1185 1184 1183 1183 1182 1182 1183 1184 1183 1183 1182 1182 1182 1181 1179 1177 1176 1177 1177 1176 1176 1177 1179 1179 1179 1178 1174 1172 1170 1170 1169 1171 1169 1170 1168 1164 1160 1155 1156 1154 1154 0 0 0 0 0 0 0 0 0 1158 1138 1122 1113 1106 1107 1101 1095 1050 0 0 0 0 0 0 1227 1225 0 0 1773 1753 1743 0 0 0 0 0 0 1727 1773 1691 0 0 1693 1731 0 1791 1780 0 0 0 1749 0 0 1709 0 0 1805 1731 1724 0 1768 1772 0 1715 0 0 0 0 1860 0 0 0 0 0 0 0 0 0 0 0 0 0 0 0 0 0 0 0 0 0 0 0 0 0 0 0 0 0 0 0 0 0
    0 1053 1055 1065 1068 1066 1045 1033 1062 1071 1072 1072 1079 1081 1084 1085 1088 1100 1097 0 1099 1079 0 0 0 1057 0 1140 1122 1080 1056 1068 1071 1082 1117 1114 1080 1098 1119 1126 1145 1113 1098 1113 1115 1105 1075 1074 1082 1106 1083 1092 1070 1129 1127 1121 1105 1087 1084 1079 1075 1065 1084 1105 1130 1126 1107 1099 1107 1118 1115 1081 1071 1083 1093 1095 1087 1089 1097 1099 1111 1105 1100 1101 1103 1104 1098 1102 1104 1109 1106 1100 1102 1108 1104 1087 1088 1100 1105 1112 1107 1104 1083 1079 1078 1107 1074 1132 1150 1148 1153 1113 1194 1195 1193 1180 1129 1123 1131 1126 0 0 0 0 0 0 0 0 1211 1163 1155 1167 1157 1159 1158 1163 1163 1162 1160 1163 1166 1169 1170 1170 1172 1173 1172 1170 1170 1172 1172 1173 1173 1173 1173 1173 1176 1179 1181 1180 1179 1180 1179 1179 1180 1181 1181 1182 1181 1183 1182 1184 1182 1181 1180 1181 1182 1182 1182 1182 1181 1184 1189 1199 1204 1203 1192 1188 1187 1188 1187 1188 1187 1186 1185 1186 1187 1189 1188 1188 1187 1187 1187 1189 1190 1191 1190 1189 1189 1190 1191 1194 1194 1193 1192 1191 1192 1192 1195 1194 1193 1193 1193 1194 1194 1195 1198 1198 1197 1196 1195 1195 1194 1195 1195 1197 1196 1197 1196 1196 1197 1198 1199 1199 1197 1197 1198 1200 1199 1197 1197 1196 1197 1197 1196 1197 1198 1201 1200 1201 1201 1202 1201 1200 1197 1195 1197 1199 1200 1199 1200 1201 1201 1201 1199 1199 1198 1199 1199 1199 1199 1199 1198 1199 1198 1199 1197 1198 1198 1199 1198 1197 1195 1197 1198 1198 1197 1197 1197 1197 1198 1199 1199 1200 1198 1199 1199 1199 1198 1198 1199 1199 1198 1196 1196 1198 1198 1198 1196 1197 1197 1197 1196 1196 1196 1197 1196 1196 1195 1195 1195 1197 1196 1195 1194 1193 1193 1194 1195 1196 1195 1195 1194 1194 1194 1195 1195 1195 1194 1193 1192 1191 1192 1193 1193 1192 1190 1190 1191 1192 1189 1188 1185 1188 1188 1190 1189 1188 1188 1188 1188 1186 1186 1186 1185 1185 1183 1184 1184 1185 1185 1185 1185 1184 1181 1180 1180 1180 1178 1178 1178 1180 1180 1181 1177 1176 1174 1172 1174 1173 1175 1171 1169 1167 1164 1161 1157 1159 1163 1175 0 0 0 0 0 0 0 0 0 1150 1119 1099 1085 1086 1090 1084 1090 0 0 0 0 0 0 0 1211 0 0 1757 0 1732 1741 1788 1742 0 0 1764 0 0 0 0 1732 1737 1704 0 1768 1772 1753 1772 0 0 1707 0 0 1772 0 0 1832 1841 1816 0 0 0 1705 0 1804 0 0 0 0 1784 1810 1796 0 0 0 0 0 0 0 0 0 0 0 0 0 0 0 0 0 0 0 0 0 0 0 0 0 0 0 0 0 0
    0 1055 1061 1070 1069 1067 1053 1020 1059 1072 1075 1077 1082 1084 1083 1082 1087 1083 1066 1109 1078 1096 0 0 0 1082 0 0 1102 1055 1046 1113 1088 1091 1100 1118 1076 1089 1118 1129 1110 1106 1124 1111 1113 1088 1088 1083 1098 1100 1098 1066 1077 1122 1115 1096 1079 1063 1076 1087 1090 1077 1078 1101 1117 1120 1080 1088 1095 1101 1095 1090 1072 1087 1090 1093 1077 1085 1096 1106 1105 1095 1091 1104 1108 1105 1093 1096 1100 1112 1113 1097 1095 1104 1099 1095 1095 1114 1112 1102 1098 1092 1078 1073 1080 1099 1118 1103 1119 0 1087 1128 1144 1166 1165 1148 1141 1125 1135 1145 1135 0 0 0 0 0 0 0 0 0 1171 1155 1140 1153 1162 1165 1166 1167 1166 1167 1170 1173 1173 1172 1175 1176 1176 1174 1175 1177 1176 1177 1177 1179 1178 1177 1176 1179 1184 1186 1184 1182 1182 1183 1187 1187 1187 1185 1185 1187 1187 1187 1187 1185 1185 1183 1184 1185 1184 1184 1185 1187 1189 1197 1203 1206 1197 1191 1190 1189 1189 1189 1191 1190 1189 1189 1190 1190 1190 1189 1190 1189 1191 1191 1193 1194 1194 1193 1193 1192 1194 1195 1195 1193 1194 1195 1196 1195 1197 1196 1195 1195 1196 1196 1197 1197 1199 1198 1199 1198 1199 1197 1197 1197 1198 1198 1198 1197 1197 1198 1198 1199 1199 1199 1199 1200 1202 1201 1201 1200 1201 1200 1201 1201 1200 1201 1201 1202 1201 1202 1204 1205 1203 1201 1200 1199 1200 1200 1200 1199 1202 1203 1203 1202 1202 1202 1201 1201 1199 1200 1202 1203 1201 1200 1200 1200 1199 1199 1199 1199 1200 1200 1200 1201 1201 1200 1199 1199 1200 1200 1201 1202 1203 1204 1202 1202 1200 1201 1201 1201 1202 1201 1201 1199 1200 1200 1200 1199 1197 1198 1198 1199 1199 1200 1200 1199 1200 1199 1198 1196 1198 1199 1200 1198 1198 1196 1197 1198 1199 1200 1198 1198 1196 1196 1196 1198 1199 1198 1197 1196 1196 1194 1195 1196 1197 1195 1193 1192 1194 1194 1192 1190 1189 1192 1194 1194 1193 1191 1192 1191 1192 1192 1194 1192 1191 1189 1186 1186 1187 1188 1189 1188 1188 1186 1186 1185 1186 1183 1182 1182 1182 1183 1180 1180 1179 1179 1177 1175 1176 1176 1177 1173 1172 1169 1167 1163 1162 1164 1172 0 0 0 0 0 0 0 0 0 0 1153 1122 1090 1072 1065 1073 1066 0 0 0 0 0 0 0 1114 1182 0 0 1709 0 1702 1729 1773 1777 1754 0 1765 1778 0 1807 1746 1726 1686 1719 1711 1757 0 1781 0 1749 0 1742 0 0 0 0 0 1795 1793 0 0 1847 0 1732 0 0 0 0 0 0 0 1754 1803 0 0 0 0 0 0 0 0 0 0 0 0 0 0 0 0 0 0 0 0 0 0 0 0 0 0 0 0 0 0
    0 1048 1056 1069 1070 1069 1063 1051 1061 1072 1080 1084 1086 1084 1085 1088 1072 1066 0 1107 1120 1097 0 0 0 0 0 1117 1060 1060 1087 1119 1105 1096 1093 1098 1059 1084 1120 1130 1117 1129 0 1117 1077 0 1153 1111 1079 1090 1098 1113 1117 1094 1101 1083 1066 1072 1064 1085 1102 1099 1081 1097 1102 1110 1097 1101 1087 1093 1085 1081 1081 1081 1090 1092 1079 1080 1089 1109 1089 1078 1081 1087 1091 1097 1095 1094 1101 1110 1103 1095 1088 1095 1092 1092 1111 1116 1105 1098 1094 1094 1084 1081 1089 1100 1111 1124 0 1077 1081 1051 1113 1121 1120 1097 1071 1092 1130 1146 1141 1141 0 0 0 1724 1746 0 0 0 1162 1160 1143 1168 1169 1172 1171 1172 1170 1171 1173 1176 1177 1176 1177 1176 1177 1177 1178 1179 1178 1180 1180 1184 1182 1183 1180 1181 1185 1188 1189 1187 1185 1186 1188 1190 1190 1188 1187 1188 1189 1190 1190 1189 1187 1186 1185 1186 1184 1188 1188 1190 1190 1197 1203 1206 1201 1194 1192 1192 1192 1191 1192 1194 1192 1193 1192 1193 1192 1192 1193 1193 1194 1195 1195 1197 1196 1197 1196 1197 1197 1198 1197 1196 1197 1198 1199 1199 1198 1198 1196 1197 1199 1200 1199 1199 1200 1200 1201 1202 1202 1200 1200 1200 1200 1199 1199 1200 1201 1202 1200 1200 1199 1202 1203 1204 1204 1203 1202 1203 1203 1204 1203 1203 1202 1202 1203 1204 1204 1204 1205 1205 1203 1202 1201 1202 1202 1203 1202 1202 1202 1203 1204 1204 1203 1203 1203 1204 1202 1204 1204 1205 1202 1202 1201 1202 1202 1203 1202 1202 1202 1204 1204 1203 1202 1203 1202 1203 1202 1203 1203 1204 1204 1206 1204 1204 1202 1202 1202 1203 1204 1205 1204 1202 1200 1201 1201 1202 1199 1199 1200 1201 1202 1203 1203 1203 1201 1201 1200 1200 1200 1201 1202 1202 1201 1201 1202 1202 1201 1200 1199 1200 1198 1199 1198 1200 1200 1200 1200 1199 1199 1197 1197 1198 1198 1198 1195 1195 1196 1197 1195 1193 1191 1192 1194 1196 1195 1196 1196 1196 1196 1195 1195 1195 1194 1193 1190 1189 1189 1191 1191 1191 1191 1190 1190 1190 1189 1188 1187 1188 1186 1187 1183 1183 1181 1183 1181 1180 1180 1180 1178 1175 1175 1174 1172 1169 1166 1165 0 0 0 0 0 0 0 0 0 1177 1173 1159 1136 1104 1071 1058 1067 0 0 0 0 0 0 1121 1083 1076 0 0 0 1807 1757 1728 1682 1782 1752 1736 1764 0 1749 0 0 0 1706 1706 1751 0 0 1790 1813 0 1727 0 1772 0 0 0 1796 0 1727 1721 1747 0 0 1841 0 0 0 0 0 0 0 0 1754 0 0 0 0 0 0 0 0 0 0 0 0 0 0 0 1846 0 0 0 0 1857 0 0 0 0 0 0 0 0 0 0
    0 1046 1059 1069 1074 1065 1068 1047 1063 1072 1082 1086 1089 1085 1083 0 1093 1086 1087 1094 1108 1090 0 0 0 1040 0 0 1075 1076 1092 1126 1101 1114 1122 1082 1075 1091 1134 0 1134 1126 1081 0 0 0 0 1146 1077 1051 1074 1111 1120 1110 1089 1077 1070 1072 1079 1088 1101 1115 1096 1085 1093 1109 1108 1100 1109 1110 1084 1083 1084 1083 1095 1098 1093 1084 1095 1103 1093 1089 1087 1095 1096 1100 1098 1090 1093 1109 1111 1096 1095 1091 1091 1091 1107 1112 1101 1096 1107 1108 1094 1086 1088 1094 1102 1098 1089 1080 1049 1085 1084 1082 1119 1184 1060 1072 1086 1120 1125 1131 1158 0 0 0 0 0 0 0 0 1175 1163 1167 1178 1172 1171 1173 1175 1176 1177 1178 1179 1179 1179 1180 1181 1181 1182 1181 1183 1185 1185 1187 1185 1186 1182 1183 1185 1190 1191 1190 1188 1188 1190 1191 1191 1190 1190 1189 1192 1193 1194 1191 1190 1189 1189 1190 1189 1191 1191 1191 1192 1196 1202 1206 1206 1201 1197 1194 1195 1195 1197 1196 1195 1195 1195 1196 1196 1195 1196 1196 1197 1198 1198 1198 1198 1199 1199 1200 1201 1199 1200 1199 1201 1200 1200 1201 1201 1200 1200 1201 1203 1204 1203 1202 1202 1201 1204 1203 1204 1203 1204 1203 1203 1201 1202 1201 1203 1202 1201 1201 1202 1204 1206 1206 1206 1205 1204 1205 1205 1205 1204 1204 1204 1204 1204 1205 1206 1207 1207 1206 1205 1204 1204 1205 1206 1205 1205 1204 1204 1203 1205 1206 1206 1206 1206 1206 1206 1207 1206 1205 1203 1202 1202 1204 1205 1204 1204 1203 1205 1206 1206 1205 1204 1205 1204 1205 1204 1206 1207 1208 1207 1207 1207 1206 1206 1205 1206 1206 1207 1207 1206 1204 1203 1204 1205 1205 1203 1203 1204 1204 1205 1206 1207 1206 1205 1203 1202 1202 1202 1202 1204 1204 1205 1203 1204 1204 1203 1201 1200 1201 1202 1203 1201 1201 1201 1201 1201 1199 1201 1201 1202 1200 1199 1199 1199 1199 1198 1200 1199 1197 1196 1196 1198 1197 1198 1198 1198 1197 1197 1197 1198 1197 1198 1197 1194 1193 1194 1196 1195 1193 1192 1192 1194 1192 1193 1190 1191 1192 1192 1191 1187 1185 1184 1186 1184 1185 1185 1184 1181 1178 1178 1178 1177 1173 1172 0 0 0 0 0 0 0 0 0 0 1167 1167 1163 1154 1141 1101 1093 0 0 0 0 0 1089 1123 1065 1109 0 0 0 1796 1818 0 1730 1752 1710 1721 1738 0 1776 1716 1720 0 1763 1705 1683 1763 1797 0 0 0 1767 1697 1731 0 0 0 0 1750 0 0 1691 1732 1786 0 0 0 0 0 0 0 0 0 0 0 0 0 0 0 1773 1742 1738 0 1817 0 0 0 0 0 0 0 0 1786 0 0 0 0 0 0 0 0 0 0 0 1767 0
    0 1049 1060 1066 1068 1058 1008 1025 1060 1070 1080 1084 1090 1093 1100 1120 1091 1086 1056 1125 1118 1106 1051 0 0 0 1013 1069 1045 1078 1084 0 1112 1081 1093 1114 1106 1102 1063 0 1107 1117 0 0 1117 0 0 1117 1099 1059 1048 1096 1115 1107 1092 1069 1070 1076 1078 1082 1092 1112 1110 1087 1094 1116 1105 1100 1098 1117 1106 1088 1092 1092 1099 1098 1095 1084 1086 1097 1104 1099 1100 1100 1100 1103 1092 1093 1094 1113 1115 1102 1090 1095 1092 1102 1104 1103 1088 1093 1108 1106 1101 1086 1088 1088 1090 1088 1082 1069 1066 1077 1084 1098 0 0 1057 1054 1080 1106 1116 1131 1149 0 0 0 0 0 0 0 0 0 1174 1173 1160 1175 1171 1173 1176 1179 1181 1182 1183 1183 1183 1183 1183 1183 1183 1185 1188 1190 1189 1190 1189 1189 1186 1188 1189 1193 1193 1194 1191 1192 1192 1193 1192 1192 1192 1191 1193 1194 1195 1194 1192 1193 1193 1194 1193 1194 1194 1194 1195 1197 1201 1207 1210 1209 1200 1197 1196 1196 1196 1198 1197 1199 1199 1200 1199 1198 1197 1199 1200 1201 1200 1202 1202 1203 1202 1204 1203 1201 1201 1203 1204 1204 1203 1204 1205 1204 1204 1205 1207 1206 1205 1203 1203 1203 1205 1205 1204 1204 1204 1205 1204 1204 1206 1205 1206 1206 1205 1204 1204 1208 1207 1208 1207 1208 1207 1207 1205 1206 1205 1206 1206 1205 1206 1207 1208 1209 1208 1207 1206 1206 1206 1207 1208 1209 1209 1208 1206 1205 1207 1209 1209 1208 1206 1208 1208 1209 1208 1207 1205 1204 1205 1206 1206 1207 1207 1207 1207 1210 1208 1207 1206 1209 1208 1208 1206 1209 1209 1211 1209 1210 1209 1209 1210 1209 1209 1209 1210 1210 1209 1207 1205 1205 1206 1206 1207 1207 1208 1208 1208 1208 1209 1208 1207 1205 1204 1205 1204 1204 1205 1206 1207 1207 1208 1206 1206 1204 1203 1203 1204 1205 1203 1202 1201 1202 1203 1201 1201 1202 1203 1203 1202 1202 1202 1202 1201 1203 1202 1201 1199 1199 1200 1199 1199 1199 1199 1199 1199 1199 1199 1199 1199 1199 1197 1197 1197 1199 1198 1198 1197 1196 1195 1193 1194 1194 1195 1194 1193 1192 1190 1189 1188 1188 1188 1189 1187 1185 1183 1181 1181 1180 1181 1181 1167 0 0 0 0 0 0 0 0 0 0 1173 1168 1165 0 0 1124 0 0 0 0 0 1186 1144 1092 0 1059 0 0 0 0 1780 1719 1686 1707 1704 1703 0 1778 1762 1714 1725 1747 1736 1715 1687 1750 1778 1767 1693 1776 1781 0 1654 0 0 0 0 0 1729 1711 0 0 0 0 0 0 0 0 0 0 0 0 1842 1818 1756 0 0 0 0 1746 0 1744 0 0 0 0 0 0 0 0 0 0 0 0 0 0 0 0 0 0 0 0 0 0 0
    0 1055 1068 1071 1070 1057 1058 1027 1064 1073 1076 1080 1087 1097 0 1112 1121 1090 1094 0 1120 0 1074 0 0 0 1015 1034 1055 1069 1099 1117 1099 1102 1088 1100 1097 1082 0 1079 1094 1064 1090 1101 0 1132 1107 1083 1107 1096 0 1095 1106 1098 1089 1054 1063 1075 1070 1078 1093 1110 1103 1091 1094 1113 1088 1081 1096 1112 1105 1104 1107 1102 1106 1101 1101 1085 1084 1093 1112 1113 1116 1128 1131 1105 1090 1088 1095 1113 1117 1108 1097 1099 1109 1109 1109 1093 1084 1091 1099 1103 1098 1094 1091 1089 1097 1088 1092 1086 1053 1058 1103 1142 1099 1072 1060 1058 1092 1133 1130 1129 1147 1161 0 0 0 0 0 0 0 0 1183 1161 1176 1172 1171 1173 1177 1182 1186 1186 1186 1185 1187 1187 1187 1186 1187 1187 1190 1193 1195 1194 1192 1191 1189 1191 1194 1197 1197 1195 1193 1195 1197 1196 1195 1195 1196 1194 1195 1196 1197 1195 1195 1195 1198 1198 1197 1196 1196 1198 1201 1201 1203 1207 1213 1216 1209 1201 1200 1200 1201 1201 1201 1201 1202 1202 1201 1199 1200 1203 1203 1203 1202 1203 1204 1204 1204 1205 1205 1204 1204 1205 1207 1206 1206 1207 1209 1208 1207 1207 1208 1207 1207 1206 1206 1205 1206 1206 1206 1206 1206 1206 1206 1206 1208 1207 1209 1208 1209 1208 1207 1209 1209 1208 1209 1210 1210 1209 1208 1207 1208 1207 1208 1208 1210 1211 1211 1210 1211 1208 1209 1208 1210 1209 1211 1212 1213 1211 1209 1208 1210 1211 1212 1211 1209 1209 1209 1210 1209 1208 1207 1209 1209 1209 1209 1209 1209 1208 1210 1212 1211 1211 1210 1211 1210 1210 1209 1212 1213 1215 1212 1211 1212 1213 1215 1213 1213 1211 1212 1211 1211 1210 1211 1209 1210 1209 1210 1211 1211 1210 1210 1209 1209 1209 1210 1208 1208 1208 1208 1207 1208 1209 1210 1209 1210 1207 1208 1207 1208 1208 1208 1209 1207 1205 1204 1205 1205 1205 1205 1205 1206 1206 1205 1204 1205 1205 1205 1205 1205 1204 1203 1203 1204 1203 1202 1200 1201 1201 1201 1201 1202 1201 1200 1200 1200 1201 1201 1202 1201 1201 1199 1198 1197 1195 1195 1197 1197 1197 1196 1194 1195 1191 1192 1191 1192 1191 1189 1186 1184 1183 1184 1181 1183 0 0 1682 1727 1737 1719 0 0 1706 0 0 0 0 1173 1169 0 0 0 0 0 0 0 1174 1169 1159 1129 1099 1112 0 0 1726 1782 1701 1753 1677 0 1725 1793 1775 1745 0 0 0 1799 1756 1727 1725 0 1772 1725 1739 1786 1791 1803 1775 1736 1734 1761 0 0 0 1730 0 0 0 0 0 0 0 0 0 0 1745 0 1807 1822 1821 0 0 0 0 0 0 0 1760 0 0 0 0 0 0 0 0 0 0 0 0 0 0 0 0 0 0 0 0 0 0
    0 1052 1063 1066 1068 1069 1062 1050 1067 1069 1068 1072 1083 1088 1101 1101 1110 1104 1100 1093 1063 1093 1084 1066 0 980 1003 0 1049 1094 1084 1097 1117 1152 1072 1086 1092 1087 1068 0 1088 1093 0 0 0 1077 1076 1109 1069 1084 1118 1109 1093 1091 1078 1078 1065 1077 1087 1086 1096 1093 1086 1090 1101 1098 1087 1086 1097 1106 1101 1110 1106 1106 1101 1101 1095 1090 1084 1092 1103 1105 1120 1133 1131 1118 1096 1099 1094 1104 1099 1102 1101 1107 1107 1109 1101 1099 1094 1098 1096 1098 1096 1095 1097 1098 1096 1095 1088 1079 1024 1045 1069 1090 1102 1082 1071 1119 1149 1160 1178 1146 1152 1160 1162 0 0 0 0 0 0 0 1183 1176 1126 1140 1169 1174 1179 1185 1188 1188 1187 1189 1190 1189 1187 1188 1191 1192 1193 1194 1194 1194 1192 1193 1194 1196 1199 1201 1199 1197 1195 1198 1199 1200 1199 1199 1198 1198 1198 1199 1200 1199 1198 1199 1201 1202 1202 1201 1200 1202 1203 1204 1205 1209 1214 1217 1213 1207 1204 1203 1203 1204 1204 1205 1205 1205 1204 1203 1204 1206 1206 1206 1205 1206 1207 1207 1207 1207 1206 1207 1206 1207 1208 1209 1209 1210 1209 1209 1207 1209 1209 1210 1208 1208 1207 1208 1208 1208 1208 1209 1209 1209 1209 1211 1211 1211 1211 1213 1213 1213 1210 1212 1211 1212 1211 1212 1213 1212 1211 1211 1212 1212 1210 1210 1212 1214 1213 1212 1212 1211 1211 1211 1212 1212 1212 1213 1213 1213 1213 1211 1212 1213 1215 1214 1212 1211 1210 1211 1211 1210 1210 1212 1211 1211 1211 1212 1212 1212 1213 1214 1213 1213 1212 1214 1213 1213 1212 1214 1214 1215 1213 1212 1213 1214 1216 1215 1214 1213 1215 1215 1215 1214 1213 1212 1212 1212 1212 1213 1214 1213 1212 1210 1210 1212 1213 1212 1210 1209 1210 1211 1211 1212 1212 1212 1212 1211 1211 1210 1211 1211 1211 1211 1209 1208 1208 1209 1209 1209 1207 1207 1208 1210 1209 1208 1207 1207 1207 1207 1208 1208 1206 1207 1207 1206 1204 1203 1204 1205 1205 1204 1204 1204 1202 1203 1203 1204 1203 1203 1203 1204 1202 1200 1198 1198 1198 1200 1200 1200 1199 1198 1198 1196 1196 1194 1194 1193 1190 1188 1186 1187 1187 1186 1190 0 0 1719 1736 1742 1735 0 1725 1711 1702 1677 0 0 0 0 0 0 0 0 0 0 0 1128 1153 1167 1135 0 0 0 1746 1771 0 0 0 0 1692 0 0 1802 1738 0 0 1747 1751 1784 1709 0 1804 1753 0 0 0 1774 1794 0 0 0 0 0 0 0 0 0 0 0 0 0 0 0 0 0 0 0 1809 1810 1819 1894 0 0 0 0 0 0 0 0 0 0 0 0 0 0 0 0 0 0 0 0 0 0 0 0 0 0 0 0 0 0
    0 1054 1059 1073 1079 0 983 1024 1056 1065 1067 1074 1080 1092 1108 1113 1090 1101 1102 1084 1069 0 1081 1072 0 1078 0 996 1013 1036 1053 1092 1109 1136 1104 1097 1094 1052 1064 1077 1096 1110 1118 1115 1123 1092 1063 1060 1072 1069 1099 1117 1090 1071 1086 1080 1079 1097 1092 1097 1082 1060 1072 1088 1094 1105 1107 1098 1099 1112 1104 1102 1102 1107 1104 1106 1097 1091 1103 1108 1118 1116 1130 1123 1116 1106 1100 1100 1102 1107 1102 1102 1106 1105 1101 1096 1098 1102 1103 1109 1108 1109 1098 1095 1094 1100 1105 1097 1093 1048 1066 1027 1047 1078 1102 1122 1123 1135 1167 1171 1197 1176 1166 1163 1152 1143 0 0 0 0 0 0 1190 1175 0 1163 1179 1178 1181 1186 1189 1188 1187 1189 1192 1192 1190 1192 1195 1194 1194 1194 1196 1195 1195 1195 1198 1198 1202 1202 1202 1200 1199 1200 1199 1199 1201 1202 1202 1202 1203 1204 1204 1203 1202 1202 1204 1205 1205 1205 1204 1205 1205 1207 1208 1211 1216 1218 1218 1210 1208 1207 1208 1207 1206 1205 1206 1207 1208 1207 1208 1207 1208 1207 1208 1207 1208 1207 1209 1210 1211 1212 1211 1211 1210 1210 1211 1210 1211 1209 1211 1212 1213 1213 1212 1211 1211 1210 1210 1210 1212 1212 1213 1212 1213 1212 1213 1212 1214 1215 1216 1214 1213 1213 1214 1214 1213 1213 1214 1214 1214 1213 1214 1213 1212 1212 1215 1216 1217 1214 1214 1212 1214 1213 1214 1214 1214 1213 1212 1214 1216 1215 1215 1214 1216 1215 1214 1213 1212 1213 1213 1211 1212 1213 1213 1214 1214 1214 1213 1214 1214 1216 1215 1215 1215 1215 1215 1216 1216 1217 1217 1217 1215 1214 1214 1215 1217 1216 1217 1215 1215 1215 1215 1216 1216 1216 1216 1214 1214 1214 1216 1215 1214 1213 1213 1214 1216 1215 1214 1213 1213 1213 1213 1214 1213 1214 1214 1213 1213 1213 1213 1213 1214 1214 1213 1211 1212 1212 1212 1211 1211 1210 1211 1212 1212 1210 1210 1209 1210 1209 1209 1209 1209 1210 1210 1208 1207 1205 1206 1207 1208 1208 1207 1206 1205 1206 1206 1207 1206 1206 1205 1205 1203 1202 1202 1202 1201 1202 1202 1204 1203 1202 1201 1200 1200 1199 1197 1195 1194 1192 1189 1189 1192 0 0 0 0 1728 1746 1743 1734 0 0 1738 0 0 0 0 0 0 0 1146 1197 0 1202 0 1130 1130 1141 1135 0 0 0 0 0 1782 1773 1779 0 1738 1742 0 0 1773 1771 1732 1733 0 0 1726 1741 1712 1724 0 0 0 0 1737 1776 0 1779 1780 0 0 1750 0 0 1714 1778 1798 0 0 0 0 0 0 1800 1798 1753 0 1835 1838 1901 0 0 1739 0 0 1845 0 0 0 0 0 0 0 0 0 0 0 0 0 0 0 0 0 0 0 0 0 1702 0
    0 1065 1064 1075 1077 0 0 1025 1047 1062 1081 1087 1097 1110 1123 1109 1076 1092 1087 1085 1045 1089 1078 1121 1098 1089 1064 0 1039 1040 1060 1059 1139 1106 1121 1127 1074 1042 1049 1076 1081 0 1112 1099 1100 1107 1076 1068 1057 1081 1093 1094 1076 1069 1065 1081 1079 1087 1084 1083 1066 1050 1063 1085 1098 1115 1115 1104 1107 1111 1104 1094 1093 1099 1099 1095 1094 1092 1096 1112 1120 1120 1118 1107 1098 1097 1096 1100 1108 1113 1110 1099 1097 1101 1090 1090 1098 1111 1108 1113 1109 1110 1098 1095 1089 1102 1099 1099 1075 1070 1082 1088 1080 1078 0 1160 1159 1151 1164 0 1188 1145 1166 1169 1159 1155 0 0 1668 1701 0 0 0 1196 0 0 1192 1181 1184 1190 1191 1190 1189 1190 1194 1195 1195 1197 1199 1199 1198 1196 1196 1196 1198 1198 1200 1201 1203 1202 1201 1202 1203 1204 1201 1201 1202 1205 1204 1205 1206 1208 1206 1206 1205 1204 1205 1207 1209 1210 1208 1207 1206 1207 1209 1211 1215 1218 1218 1212 1209 1208 1209 1209 1208 1208 1209 1210 1210 1210 1211 1211 1211 1211 1210 1210 1210 1210 1211 1213 1212 1213 1212 1213 1211 1210 1210 1211 1211 1210 1212 1215 1215 1216 1214 1215 1213 1213 1212 1211 1213 1214 1216 1216 1216 1216 1215 1216 1215 1217 1217 1217 1216 1216 1216 1216 1214 1215 1215 1216 1216 1215 1216 1216 1216 1216 1217 1218 1218 1216 1215 1215 1215 1215 1215 1215 1215 1213 1213 1214 1216 1217 1217 1217 1217 1217 1215 1215 1215 1215 1216 1215 1213 1213 1214 1216 1216 1216 1216 1217 1216 1218 1217 1218 1216 1217 1218 1219 1219 1219 1218 1217 1217 1217 1216 1216 1216 1217 1218 1216 1216 1216 1216 1216 1217 1217 1215 1214 1213 1215 1217 1218 1216 1216 1215 1216 1217 1216 1215 1214 1213 1214 1213 1213 1213 1214 1214 1216 1216 1216 1215 1215 1215 1215 1214 1213 1214 1215 1214 1213 1213 1213 1213 1213 1213 1211 1211 1210 1211 1211 1211 1211 1209 1211 1211 1210 1207 1207 1207 1210 1210 1210 1208 1210 1209 1209 1208 1209 1207 1206 1206 1208 1207 1206 1206 1206 1206 1205 1204 1205 1203 1205 1203 1204 1201 1199 1196 1196 1195 1196 1193 1193 1195 0 0 1698 1704 0 1737 1744 1719 1704 1725 0 1733 0 0 0 0 0 1158 1179 1166 1180 1178 1192 1169 0 1092 1061 1048 0 0 1782 1804 1828 1780 1765 1772 1728 1735 1753 1797 1737 1704 1736 0 1734 0 1732 1725 0 0 1726 1758 0 0 0 1770 1739 1769 0 1796 1762 1752 1767 1751 1762 1753 0 0 0 0 0 0 0 1844 1787 0 1809 1818 1803 1816 0 1804 1737 0 1735 0 0 0 0 1748 0 0 0 0 0 0 0 0 0 0 0 1712 0 0 0 0 0 0 0
    0 0 0 1054 1056 0 976 1002 1043 1077 1091 1098 1119 1107 1109 1107 1102 1053 1101 1076 1070 1085 1106 1134 1122 1066 1064 1070 1077 1076 1087 1077 1079 1123 1118 1126 1120 1057 1059 1099 1094 1093 1093 1094 1083 1089 1097 1093 1057 1081 1084 1069 1071 1082 1077 1071 1084 1081 1086 1073 1068 1061 1066 1072 1102 1104 1104 1103 1113 1126 1118 1100 1092 1095 1101 1103 1096 1094 1098 1103 1125 1117 1115 1107 1106 1092 1084 1081 1089 1113 1110 1099 1096 1089 1084 1082 1097 1107 1105 1105 1102 1105 1095 1093 1090 1099 1100 1098 1091 1077 1102 0 0 1105 0 1147 1163 1166 1166 1186 1124 1143 1164 1167 1163 1159 1150 0 0 0 0 0 0 1227 1186 0 0 1171 1183 1191 1192 1193 1193 1194 1197 1199 1201 1202 1202 1200 1200 1200 1203 1201 1202 1200 1202 1203 1205 1205 1203 1204 1206 1207 1204 1202 1203 1206 1207 1208 1209 1208 1208 1207 1208 1206 1208 1208 1210 1211 1210 1208 1208 1210 1211 1212 1215 1220 1220 1216 1211 1209 1211 1212 1212 1210 1211 1211 1212 1212 1214 1213 1213 1212 1213 1212 1213 1212 1213 1214 1216 1216 1216 1216 1215 1213 1213 1212 1214 1213 1215 1216 1218 1218 1218 1217 1217 1215 1215 1214 1216 1216 1218 1217 1216 1216 1216 1217 1217 1218 1219 1217 1217 1217 1218 1217 1216 1216 1217 1218 1218 1217 1217 1218 1219 1218 1218 1218 1219 1217 1217 1216 1217 1217 1218 1217 1218 1216 1215 1215 1216 1219 1218 1217 1217 1217 1217 1216 1216 1218 1218 1218 1217 1216 1217 1218 1219 1218 1218 1217 1217 1220 1221 1222 1219 1219 1219 1219 1220 1218 1218 1219 1219 1220 1219 1218 1218 1217 1219 1218 1218 1217 1217 1216 1219 1218 1217 1215 1215 1216 1217 1219 1219 1219 1218 1218 1219 1218 1219 1217 1217 1215 1214 1214 1215 1216 1216 1217 1217 1217 1217 1217 1217 1216 1216 1214 1215 1216 1217 1216 1216 1215 1215 1215 1215 1214 1214 1213 1214 1212 1211 1210 1209 1210 1210 1210 1209 1210 1209 1211 1212 1213 1211 1211 1211 1211 1212 1213 1211 1208 1207 1208 1208 1208 1208 1208 1207 1207 1205 1207 1205 1206 1204 1205 1203 1202 1199 1199 1199 1200 1198 1197 0 0 0 1709 1713 1718 1729 1715 1719 1727 1722 1730 0 0 0 0 1125 0 1141 0 1182 1170 1197 1183 1178 1123 1041 1024 1031 0 0 1781 1829 1765 1771 1774 1737 1732 1711 1731 1721 1734 0 1706 1747 1756 1744 1763 0 0 0 0 1720 0 0 0 0 0 1722 1815 1819 1774 1755 1722 1781 1781 0 0 0 0 1831 1840 0 1787 1763 1835 1800 1794 1804 0 0 1836 0 0 0 0 0 0 0 0 0 1803 1796 0 0 0 0 0 0 0 0 1728 0 0 0 0 1737 1789 0 0
    0 0 0 0 1013 0 962 0 1092 1085 1087 1089 0 1124 1132 1133 1122 1095 1081 0 1100 1094 1135 1120 0 0 1064 0 1081 1090 1076 1087 1161 1163 1117 1126 1109 1070 1077 1116 1123 1088 1084 1083 1086 1089 1117 1114 1111 1073 1072 1074 1071 1095 1111 0 1070 1086 1099 1087 1079 1072 1080 1086 1096 1104 1097 1096 1101 1113 1117 1101 1090 1086 1095 1095 1105 1103 1100 1097 1099 1103 1103 1104 1108 1100 1088 1076 1077 1090 1101 1104 1096 1096 1086 1090 1090 1102 1100 1099 1092 1099 1096 1098 1093 1099 1098 1100 1104 1092 1059 0 1117 1087 1051 1134 1145 1168 1141 1134 1173 1174 1176 1171 1164 1166 1168 1180 0 0 0 1627 0 0 1221 0 0 1192 1176 1187 1193 1197 1198 1198 1199 1202 1204 1206 1203 1203 1201 1203 1204 1204 1203 1204 1204 1207 1207 1207 1205 1205 1207 1209 1208 1208 1208 1209 1209 1210 1210 1209 1208 1210 1211 1211 1211 1211 1212 1213 1212 1211 1212 1213 1213 1213 1215 1221 1222 1220 1213 1210 1213 1214 1215 1214 1214 1214 1214 1215 1216 1215 1213 1213 1214 1214 1214 1213 1215 1215 1216 1216 1217 1218 1216 1215 1214 1216 1216 1216 1215 1217 1217 1219 1219 1219 1218 1217 1216 1216 1217 1219 1219 1220 1218 1219 1218 1219 1218 1219 1218 1218 1219 1220 1220 1220 1219 1220 1219 1222 1221 1221 1220 1220 1220 1220 1220 1220 1220 1219 1218 1218 1219 1220 1221 1219 1219 1219 1218 1217 1217 1220 1220 1219 1218 1218 1218 1218 1218 1220 1220 1221 1220 1219 1219 1220 1221 1220 1219 1220 1221 1223 1223 1223 1221 1220 1219 1221 1221 1220 1219 1220 1221 1222 1221 1220 1219 1219 1220 1219 1219 1219 1219 1218 1218 1218 1218 1219 1219 1220 1219 1219 1218 1219 1218 1220 1220 1220 1219 1219 1218 1218 1217 1217 1216 1218 1218 1220 1219 1219 1217 1218 1218 1219 1217 1216 1216 1218 1219 1218 1217 1217 1216 1216 1215 1215 1216 1216 1215 1214 1213 1212 1212 1213 1213 1213 1212 1213 1213 1214 1214 1214 1212 1213 1212 1212 1212 1213 1212 1210 1209 1211 1211 1210 1210 1211 1210 1210 1207 1209 1207 1209 1208 1207 1204 1203 1200 1200 1201 1203 1204 0 0 0 1735 1722 1722 1722 1708 1714 1718 1745 1735 1679 0 0 0 1102 0 1087 1177 1186 1181 1188 1191 1192 1173 1165 1039 1021 0 0 0 1730 1726 0 1785 1757 1737 1724 1734 1726 1720 1714 1699 1750 1757 1740 1750 1741 0 0 0 0 0 1759 1750 1748 0 0 1752 1752 1824 1805 1772 1729 0 1802 0 0 0 0 1798 0 0 0 0 0 0 1830 0 0 0 0 0 0 0 0 0 0 1709 1769 1844 0 1741 1815 0 0 0 0 0 0 0 0 0 0 0 0 0 0 1847 0
    0 0 0 0 0 1003 0 0 1106 1094 1065 1049 1125 1121 1141 1157 1142 1095 1095 1092 1129 1144 1112 0 0 0 1062 0 1020 1035 1020 1080 1121 1165 1166 1109 1112 1106 1122 1150 1111 1088 1069 1105 1098 1111 1120 1112 1095 1111 1093 1094 1096 1085 1107 1093 1086 1086 1109 1094 1092 1096 1112 1098 1100 1102 1100 1095 1099 1098 1097 1095 1099 1103 1094 1094 1111 1120 1107 1095 1094 1095 1095 1101 1100 1091 1087 1084 1082 1083 1096 1101 1100 1094 1093 1088 1086 1090 1092 1098 1091 1100 1097 1102 1099 1103 1100 1098 1100 1092 1095 1101 1078 1044 0 1109 1152 1135 1139 1140 1141 1173 1166 1158 1156 1168 1166 1176 1178 0 0 0 0 0 1197 0 0 1193 1194 1184 1192 1199 1201 1202 1204 1205 1206 1205 1205 1204 1206 1208 1209 1207 1206 1206 1207 1209 1211 1210 1209 1208 1210 1211 1212 1211 1211 1211 1212 1212 1213 1211 1212 1214 1216 1216 1215 1212 1214 1213 1215 1214 1216 1215 1216 1217 1220 1223 1223 1220 1215 1213 1216 1215 1216 1216 1217 1215 1217 1217 1218 1215 1215 1215 1217 1217 1217 1216 1218 1218 1219 1218 1219 1218 1218 1218 1218 1218 1219 1219 1219 1218 1219 1219 1219 1219 1219 1218 1219 1219 1220 1220 1221 1220 1220 1220 1220 1220 1220 1219 1220 1219 1221 1221 1222 1223 1222 1222 1221 1222 1223 1223 1222 1222 1221 1221 1221 1221 1223 1222 1221 1219 1221 1222 1224 1221 1221 1221 1220 1219 1220 1222 1221 1220 1220 1220 1221 1221 1221 1222 1222 1222 1221 1221 1221 1222 1223 1223 1222 1222 1223 1224 1224 1224 1223 1222 1221 1221 1222 1222 1221 1222 1223 1224 1222 1221 1221 1221 1222 1221 1222 1221 1221 1221 1221 1220 1220 1221 1222 1222 1221 1220 1219 1219 1219 1221 1222 1221 1220 1220 1220 1221 1221 1221 1220 1222 1222 1223 1222 1221 1220 1221 1221 1221 1219 1218 1218 1218 1219 1218 1219 1219 1219 1218 1218 1218 1218 1218 1218 1216 1215 1214 1215 1216 1215 1213 1214 1214 1216 1216 1217 1217 1216 1215 1214 1214 1215 1214 1215 1213 1212 1211 1212 1212 1213 1213 1212 1211 1210 1211 1212 1213 1212 1210 1208 1207 1206 1205 1206 1207 0 0 0 1719 1713 1728 1721 1704 1720 1720 1719 1732 0 0 0 0 0 0 0 0 1185 1184 1177 1165 1173 1196 1186 1167 0 1034 0 1743 1726 1717 1745 1766 1779 1763 1734 1743 1741 1752 1743 1725 1736 1732 1747 1740 1729 1734 1763 0 1720 1740 1821 1789 1762 1755 0 1781 1807 1792 1787 1768 1806 1790 1691 0 0 0 0 0 0 1796 1756 0 1811 0 1820 0 1759 1739 1759 0 0 0 0 0 0 1787 1761 0 0 1755 1779 1852 0 0 0 0 0 0 0 0 0 0 0 0 0 0 1804 0
    0 0 0 0 0 1059 1027 1046 1087 1090 1103 1050 1065 1118 1082 0 1085 1082 1042 1107 1108 1113 0 0 0 1004 1039 1067 1052 1000 1004 1056 1096 1108 1099 1118 1112 1109 1112 1110 1096 1089 1108 1080 1097 1102 1086 1087 1101 1092 1113 1095 1095 1102 1088 1081 1088 1097 1103 1101 1092 1098 1106 1104 1097 1098 1097 1102 1101 1099 1090 1096 1114 1113 1094 1085 1109 1127 1110 1096 1091 1091 1094 1101 1094 1084 1092 1095 1095 1093 1103 1109 1100 1096 1096 1101 1094 1088 1088 1096 1101 1104 1106 1112 1109 1109 1104 1097 1096 1089 1094 1099 1118 1090 1092 1116 1130 1166 1165 1159 1172 1141 1131 1142 1157 1164 1165 1153 1143 1161 0 1637 0 0 1200 0 0 0 1223 1191 1194 1201 1203 1205 1207 1206 1206 1205 1207 1208 1210 1210 1210 1209 1209 1211 1209 1210 1210 1212 1211 1211 1212 1213 1214 1214 1213 1214 1214 1214 1213 1214 1214 1217 1218 1218 1217 1215 1215 1215 1216 1217 1218 1218 1217 1219 1221 1224 1223 1220 1216 1214 1217 1217 1218 1218 1218 1218 1218 1219 1219 1218 1217 1218 1218 1219 1219 1219 1220 1220 1219 1218 1219 1219 1219 1220 1221 1221 1221 1222 1222 1220 1220 1220 1220 1220 1219 1221 1220 1221 1221 1221 1220 1221 1221 1221 1221 1222 1221 1220 1221 1221 1221 1221 1223 1224 1223 1224 1222 1224 1223 1224 1223 1223 1223 1223 1222 1224 1224 1225 1223 1221 1222 1223 1224 1223 1222 1222 1222 1223 1223 1224 1223 1223 1223 1223 1222 1221 1221 1222 1222 1223 1222 1222 1222 1222 1223 1223 1223 1224 1224 1224 1224 1224 1223 1223 1223 1222 1222 1223 1223 1224 1224 1225 1224 1223 1223 1223 1223 1222 1223 1223 1223 1224 1224 1223 1222 1224 1225 1225 1223 1222 1221 1220 1221 1223 1223 1221 1220 1221 1222 1222 1221 1223 1222 1223 1223 1224 1222 1221 1220 1222 1223 1224 1222 1220 1220 1220 1219 1218 1219 1220 1220 1218 1219 1219 1219 1219 1218 1218 1218 1218 1219 1219 1218 1216 1216 1218 1220 1220 1219 1217 1216 1216 1216 1217 1217 1216 1216 1216 1216 1215 1214 1214 1215 1215 1214 1213 1212 1213 1213 1215 1214 1212 1209 1209 1208 1208 1209 1217 0 0 1737 1726 1719 1716 1710 1712 1723 1725 1719 1722 0 0 0 0 0 0 0 1180 1189 1181 1166 1159 1179 1178 1192 0 0 0 0 1735 1738 1744 1741 1755 1746 1761 1752 1762 1753 1742 1754 1757 1758 1753 1750 1743 1729 0 1730 1752 1730 1767 1721 1837 1773 1770 1773 1764 1770 1751 1749 1738 0 1815 1751 0 0 0 1780 0 0 1769 1752 0 0 1791 0 0 0 1728 0 1766 1734 0 0 0 1802 0 1768 0 1771 1775 0 0 0 0 0 1777 0 0 0 0 0 0 0 0 0 0 1797 0
    0 0 0 0 0 0 0 1028 1093 0 1058 0 1075 1081 0 1096 1060 1040 0 0 1085 0 0 0 0 1039 0 1066 1056 1039 1052 1058 1092 1084 1084 1103 1117 1098 1119 1102 1097 1100 1100 1110 1093 1087 1079 1087 1090 1093 1096 1097 1115 1109 1092 1084 1100 1101 1111 1089 1093 1087 1094 1097 1088 1076 1085 1106 1122 1117 1108 1116 1127 1136 1114 1104 1104 1114 1110 1106 1106 1113 1119 1115 1107 1093 1104 1109 1106 1098 1116 1110 1105 1095 1098 1107 1108 1097 1091 1107 1113 1115 1111 1115 1119 1119 1111 1104 1105 1110 1114 1111 1120 1120 1099 1120 1157 1174 1189 1198 1177 1158 1150 1151 1157 1149 1134 1126 1132 1160 1191 0 0 0 0 0 0 0 0 1223 1199 1203 1205 1209 1210 1208 1206 1206 1208 1208 1212 1212 1214 1212 1214 1214 1213 1212 1212 1214 1215 1214 1214 1215 1215 1214 1215 1216 1216 1216 1216 1215 1216 1216 1218 1218 1219 1217 1216 1216 1218 1219 1220 1219 1219 1220 1223 1224 1222 1218 1217 1218 1220 1220 1220 1219 1221 1219 1219 1219 1221 1219 1218 1219 1220 1222 1221 1222 1222 1221 1220 1220 1221 1221 1221 1222 1223 1221 1221 1222 1223 1222 1221 1220 1220 1221 1221 1222 1222 1222 1223 1222 1222 1222 1222 1222 1222 1222 1222 1222 1223 1222 1222 1222 1224 1224 1224 1224 1223 1222 1222 1223 1223 1223 1223 1223 1222 1224 1226 1226 1225 1223 1224 1224 1226 1224 1224 1223 1225 1225 1226 1225 1225 1225 1225 1224 1224 1223 1223 1223 1223 1224 1223 1224 1223 1223 1224 1225 1226 1224 1223 1222 1224 1224 1224 1223 1224 1222 1223 1224 1226 1225 1225 1225 1225 1224 1225 1224 1225 1224 1226 1226 1226 1225 1226 1225 1224 1224 1226 1225 1225 1223 1222 1222 1223 1223 1223 1221 1221 1222 1223 1222 1223 1224 1225 1225 1223 1223 1222 1222 1222 1223 1225 1225 1224 1222 1222 1221 1221 1220 1222 1222 1222 1221 1222 1222 1222 1220 1220 1220 1220 1219 1220 1221 1219 1218 1219 1220 1223 1222 1222 1219 1219 1216 1218 1219 1221 1219 1220 1218 1217 1215 1214 1216 1216 1215 1214 1213 1213 1214 1215 1216 1215 1214 1212 1212 1212 1216 1221 0 0 1700 1714 1743 1731 1731 1724 1715 1724 1731 1733 1729 0 1652 0 0 0 0 0 1182 1175 1170 1165 1160 1172 1197 1166 0 969 0 0 1745 1757 1756 1759 1735 1728 1720 1747 1747 1735 1754 1740 1740 1743 1760 1759 1745 1738 1732 1738 1721 1744 0 1751 1710 1773 1757 1744 1745 1745 1743 1725 0 0 1733 1712 1742 0 1772 1790 1767 0 0 0 0 1777 1813 0 0 0 0 1806 0 1747 0 0 0 0 0 0 0 1724 0 0 0 0 0 0 0 0 0 0 0 0 0 0 0 0 0 0 0
    0 0 0 0 0 0 0 1112 0 0 1038 1021 1026 1052 1073 0 1119 0 0 0 0 1050 1115 0 1059 1103 1090 1080 1062 1084 1098 1123 1101 1099 1094 1109 1119 1133 1118 1106 1105 1092 1124 1104 1101 1082 1097 1106 1088 1127 1101 1114 1118 1125 1102 1093 1098 1116 1113 1106 1074 1070 1077 1086 1085 1075 1071 1111 1123 1124 1116 1124 1153 1120 1116 1115 1115 1112 1117 1129 1146 1151 1144 1136 1135 1155 1132 1127 1118 1117 1131 1141 1116 1109 1119 1129 1135 1110 1112 1119 1146 1134 1133 1126 1126 1128 1124 1119 1123 1134 1141 1136 1130 1136 1135 1098 1159 1182 1192 1204 1217 1212 1197 1187 1175 1168 1129 1117 1128 1153 1178 1204 0 0 0 0 0 0 0 0 1200 1205 1205 1210 1209 1209 1209 1209 1210 1209 1211 1212 1213 1214 1214 1216 1215 1214 1214 1216 1217 1216 1215 1216 1216 1217 1216 1219 1218 1218 1216 1217 1216 1215 1216 1217 1219 1219 1218 1219 1219 1220 1220 1221 1220 1221 1223 1224 1222 1219 1217 1217 1219 1219 1219 1220 1221 1220 1220 1220 1221 1220 1218 1219 1220 1222 1222 1221 1220 1220 1219 1221 1222 1221 1221 1222 1222 1221 1220 1221 1222 1222 1220 1220 1220 1222 1221 1221 1221 1223 1223 1223 1222 1222 1220 1221 1221 1221 1220 1221 1221 1221 1221 1221 1222 1223 1223 1224 1223 1223 1223 1224 1223 1223 1222 1221 1220 1222 1223 1225 1224 1223 1224 1224 1224 1224 1223 1223 1223 1225 1225 1225 1224 1225 1224 1224 1223 1223 1223 1224 1223 1223 1223 1224 1224 1223 1223 1223 1225 1223 1223 1221 1222 1223 1223 1222 1223 1223 1223 1224 1224 1224 1224 1223 1224 1223 1224 1224 1224 1225 1225 1226 1224 1224 1224 1224 1224 1223 1225 1225 1225 1223 1223 1224 1225 1224 1223 1222 1223 1223 1222 1221 1222 1222 1223 1223 1222 1222 1221 1221 1219 1221 1223 1225 1224 1223 1221 1222 1222 1221 1221 1221 1221 1221 1222 1223 1222 1222 1221 1221 1220 1220 1221 1221 1221 1221 1222 1222 1223 1222 1221 1220 1219 1218 1218 1220 1221 1220 1219 1218 1217 1216 1215 1217 1218 1217 1215 1214 1214 1216 1216 1217 1215 1215 1213 1212 1213 1221 1240 0 1669 1690 1712 1728 1746 1740 1736 1725 1729 1747 1746 1732 0 0 0 0 0 0 0 1174 1174 1172 1159 1168 1173 1197 1164 0 0 0 0 1764 1751 1759 1757 1754 1734 1733 1731 0 1762 1789 1765 1724 1723 1750 1771 1759 1737 1718 1722 1757 1749 1753 1727 1719 1710 1731 1761 1808 1730 1735 1760 1763 1746 1700 1675 1667 1772 0 1747 0 1749 1752 1784 0 0 1779 0 0 0 1817 1795 1831 0 0 0 0 0 0 0 0 0 1770 1770 0 0 0 0 0 0 0 0 0 0 0 0 0 0 1860 0 0
    0 0 0 0 0 1061 0 0 1043 0 1050 1035 1040 1072 1121 1101 1079 1094 0 0 1118 1080 1026 1134 1144 1089 1079 1082 1082 1087 1097 1105 1114 1103 1113 1115 1131 1147 1140 1121 1108 1123 1087 1107 1100 1096 1090 1094 1134 1080 1086 0 1115 1098 1106 1096 1095 1111 1129 1095 1081 1056 1078 1098 1097 0 0 0 1126 1106 1111 1126 0 0 1097 1110 1122 1125 1130 1158 1183 1170 1134 1161 1177 0 1169 1150 1123 1126 1148 1138 0 1147 1138 1158 1160 1151 1119 1144 1181 1175 1153 1137 1151 1144 1168 0 1175 1170 1171 1167 1154 1147 1145 1150 1168 1185 1192 1208 1227 1224 1214 1206 1200 1195 1183 1133 1136 1155 1173 1187 0 0 0 0 0 1699 0 0 1178 1201 1205 1209 1209 1209 1209 1208 1208 1207 1208 1209 1211 1212 1214 1215 1215 1213 1213 1214 1215 1213 1213 1214 1214 1214 1215 1217 1216 1215 1214 1213 1213 1212 1214 1214 1215 1215 1215 1216 1216 1215 1216 1215 1218 1220 1223 1223 1221 1216 1215 1214 1216 1214 1216 1216 1218 1217 1217 1216 1217 1216 1216 1216 1217 1217 1218 1217 1216 1216 1216 1216 1218 1217 1217 1217 1218 1217 1215 1216 1216 1218 1216 1216 1216 1217 1217 1217 1218 1219 1220 1219 1217 1216 1215 1216 1216 1216 1216 1217 1217 1216 1216 1217 1218 1218 1219 1218 1218 1217 1218 1218 1219 1220 1219 1217 1216 1216 1217 1217 1218 1219 1219 1219 1219 1218 1217 1218 1219 1219 1219 1219 1218 1219 1218 1219 1219 1219 1219 1219 1219 1218 1217 1218 1219 1219 1220 1219 1220 1219 1219 1218 1218 1218 1218 1217 1217 1217 1219 1219 1220 1218 1219 1219 1220 1219 1219 1219 1220 1221 1220 1220 1219 1218 1220 1219 1219 1217 1220 1221 1221 1219 1219 1220 1220 1220 1218 1219 1219 1219 1218 1218 1219 1218 1219 1218 1218 1217 1217 1218 1218 1219 1219 1220 1220 1219 1219 1218 1218 1218 1219 1219 1218 1218 1218 1219 1220 1219 1220 1219 1219 1219 1219 1219 1219 1218 1219 1218 1219 1217 1219 1218 1219 1216 1217 1217 1219 1218 1218 1216 1215 1215 1215 1217 1218 1217 1216 1215 1216 1215 1216 1215 1215 1215 1213 1214 1218 1236 0 0 1672 1678 1709 1724 1739 1739 1730 1734 1747 1739 1742 1737 1747 0 0 0 0 0 1174 1172 1169 1164 1160 1117 1177 1182 1123 1128 0 1755 1749 1740 1741 1740 1760 1759 1746 1758 1742 1730 1772 1787 1793 1732 1736 1740 1755 1753 1741 1735 1715 1765 1767 1739 1750 1725 1696 1754 1819 1757 1740 1721 1759 0 1757 1773 1697 0 1762 1777 0 1777 0 1763 1821 0 0 1733 0 0 0 1782 1833 1798 0 0 0 0 1771 0 0 0 0 1751 0 0 0 0 0 0 0 0 0 0 0 0 0 0 0 1849 1857 0
    0 0 0 0 0 0 1079 0 1089 1079 1120 1084 0 1079 1120 0 1089 0 1059 1078 1077 1055 1071 0 1102 1064 1080 1078 1100 1091 1097 1095 1107 1107 1118 1116 1120 1116 1141 0 1127 1113 1135 1105 1086 0 0 1087 1069 0 0 1091 1084 1090 1091 1102 1104 0 0 0 1057 1087 0 0 0 0 0 0 1087 1085 1116 1116 0 0 0 0 0 1154 1118 1137 0 0 1151 0 1134 0 0 0 0 1135 1143 0 0 0 0 0 0 0 1136 0 0 0 0 0 0 0 0 0 0 0 1183 1178 1169 1152 1148 1163 1182 1200 1212 1228 1238 1231 1219 1216 1211 1215 1196 1152 1148 1156 1167 1178 0 0 0 1251 0 1692 0 0 1197 1214 1196 1203 1206 1207 1206 1206 1207 1207 1207 1207 1207 1208 1208 1210 1209 1210 1210 1211 1210 1209 1209 1210 1210 1211 1212 1214 1212 1211 1209 1210 1209 1209 1209 1210 1210 1210 1211 1211 1211 1210 1210 1211 1214 1217 1219 1218 1216 1211 1211 1210 1211 1211 1212 1213 1213 1213 1213 1214 1213 1214 1213 1214 1214 1214 1214 1214 1213 1213 1213 1212 1212 1212 1213 1214 1214 1214 1212 1213 1212 1213 1212 1213 1212 1212 1212 1213 1214 1216 1215 1215 1212 1212 1212 1213 1213 1212 1212 1213 1213 1213 1212 1213 1214 1215 1215 1216 1215 1214 1213 1214 1215 1217 1215 1215 1214 1214 1213 1213 1214 1215 1215 1216 1215 1215 1213 1214 1214 1214 1214 1214 1214 1214 1215 1215 1215 1215 1215 1215 1215 1214 1215 1215 1215 1214 1215 1213 1214 1215 1215 1214 1214 1215 1214 1214 1213 1213 1215 1215 1215 1214 1215 1216 1215 1214 1213 1215 1215 1215 1215 1214 1213 1212 1214 1215 1214 1213 1214 1215 1216 1215 1215 1216 1217 1217 1215 1215 1214 1215 1215 1216 1216 1216 1215 1214 1214 1214 1214 1214 1214 1215 1216 1216 1215 1215 1213 1213 1213 1215 1214 1215 1213 1213 1213 1216 1216 1215 1215 1215 1215 1216 1216 1216 1215 1215 1216 1215 1215 1214 1215 1215 1216 1214 1214 1215 1214 1214 1212 1212 1213 1213 1214 1214 1215 1214 1214 1215 1215 1214 1214 1213 1212 1210 1209 1212 1220 0 0 1680 1693 1705 1698 1730 1732 1724 1725 1734 1727 1731 1734 1735 0 0 0 0 0 0 1174 1174 1172 1184 1163 1145 1135 1148 0 0 0 1734 1723 1726 1726 1731 1728 1739 1756 1746 1740 1742 1752 1784 1797 1771 1745 1737 1722 1741 1757 1746 1787 1775 1742 1753 1739 0 0 1728 1769 1728 1691 1740 1743 1750 1771 1777 1756 0 1734 1744 1748 0 1742 1788 1820 1740 1704 1784 1821 0 0 0 0 0 1805 1840 0 0 0 1780 0 0 1833 1837 0 0 0 0 0 0 0 0 0 1703 0 0 0 0 1859 0 0 0
    0 1073 0 0 0 0 0 0 1099 1110 0 0 0 1107 1120 1150 1120 0 1057 1039 0 0 0 1061 0 1084 1098 1113 1116 0 1094 1109 1036 1050 1057 1096 1102 1105 1125 1139 1097 0 0 0 0 0 0 1154 1146 0 0 0 0 0 0 0 1122 0 0 0 0 0 0 0 0 0 0 0 0 0 0 0 0 0 0 0 0 0 0 0 0 0 0 0 0 0 0 0 0 0 0 0 0 0 0 0 0 1728 1731 0 1714 0 0 0 1722 1719 1714 1730 1715 1748 0 0 0 0 0 1175 1187 1229 1243 1260 1255 1235 1219 1215 1213 1216 1198 1183 1163 1156 1162 1168 1176 0 0 1242 0 0 0 0 1257 1208 1201 1201 1203 1203 1203 1203 1205 1206 1207 1206 1206 1206 1207 1208 1208 1207 1209 1208 1208 1206 1207 1206 1206 1207 1209 1209 1209 1207 1207 1207 1207 1207 1207 1207 1208 1208 1209 1209 1209 1208 1208 1211 1213 1214 1215 1213 1211 1209 1209 1208 1209 1209 1211 1210 1210 1211 1212 1212 1212 1211 1212 1212 1212 1211 1211 1211 1212 1212 1211 1209 1210 1210 1212 1213 1213 1211 1211 1211 1211 1211 1212 1211 1210 1208 1210 1212 1213 1213 1212 1211 1209 1210 1212 1213 1212 1211 1212 1212 1212 1211 1211 1211 1212 1213 1213 1214 1213 1213 1212 1211 1213 1214 1215 1215 1214 1214 1212 1212 1213 1213 1212 1212 1212 1211 1211 1213 1213 1212 1212 1211 1212 1212 1213 1213 1213 1213 1212 1212 1212 1212 1213 1212 1213 1212 1212 1211 1212 1212 1212 1213 1212 1212 1212 1213 1212 1212 1212 1213 1214 1213 1215 1214 1214 1212 1213 1213 1213 1212 1212 1211 1212 1211 1213 1213 1212 1212 1213 1213 1213 1213 1213 1214 1214 1214 1213 1213 1212 1212 1213 1214 1215 1215 1215 1214 1213 1212 1212 1212 1213 1213 1213 1213 1213 1212 1212 1210 1210 1211 1212 1213 1211 1211 1211 1213 1214 1212 1213 1213 1213 1214 1214 1214 1212 1212 1213 1213 1214 1213 1215 1214 1214 1213 1214 1213 1212 1211 1211 1211 1212 1211 1212 1211 1212 1211 1213 1213 1213 1211 1211 1210 1210 1209 1209 1212 1223 0 0 1686 1714 1720 1728 1725 1715 1702 1709 1731 1742 1746 1731 1731 1718 0 0 0 0 0 1167 1171 1196 1176 1149 1166 1164 1158 0 0 1740 1729 1730 1730 1745 1737 1717 1728 1745 1741 1730 1735 1771 1799 1783 1757 1742 1738 1729 1731 1764 0 1768 1749 1727 1734 1783 1740 1710 1739 1781 1730 1707 1682 1743 1759 1785 1805 1752 1703 1699 1730 1758 1741 1723 1721 1738 0 1775 1784 1780 1790 0 0 0 0 0 0 1845 1785 1794 1800 1793 0 0 0 0 0 0 0 0 0 0 0 0 0 0 0 0 1783 1837 0 0 0
    0 0 1036 1089 0 0 0 1074 0 0 0 0 0 1124 0 0 0 1066 0 0 0 0 0 1092 0 0 0 0 0 0 0 0 0 0 0 0 0 0 1096 1118 0 0 0 0 0 0 0 0 0 0 0 0 0 0 0 0 0 0 0 0 0 0 0 0 0 0 0 0 0 1776 1803 0 0 0 0 0 0 0 0 0 0 0 0 0 1660 1770 1720 1704 1699 1726 1734 1723 1723 1736 1724 1714 1731 1756 1719 1741 1709 1718 1718 1753 1741 1734 1734 1711 1706 1717 1731 0 0 0 0 0 0 1257 1263 1259 1258 1244 1219 1216 1212 1216 1202 1188 1161 1147 1149 1154 1162 0 0 1223 0 0 1685 0 0 1215 1199 1200 1201 1202 1203 1204 1206 1207 1208 1208 1207 1207 1206 1207 1207 1208 1208 1207 1207 1207 1208 1207 1206 1208 1209 1210 1208 1208 1209 1210 1208 1207 1206 1207 1208 1209 1210 1210 1209 1211 1213 1217 1216 1216 1212 1210 1208 1209 1209 1209 1209 1210 1212 1212 1210 1210 1211 1213 1212 1211 1211 1212 1212 1211 1210 1211 1213 1212 1211 1210 1211 1210 1211 1212 1212 1211 1211 1211 1212 1211 1213 1213 1212 1211 1211 1213 1212 1213 1212 1213 1212 1214 1215 1217 1214 1212 1212 1213 1213 1212 1212 1213 1213 1214 1214 1214 1214 1213 1213 1213 1214 1214 1214 1215 1215 1216 1214 1214 1213 1213 1214 1214 1213 1212 1213 1214 1214 1214 1213 1213 1212 1213 1213 1214 1214 1214 1213 1213 1213 1214 1214 1214 1213 1212 1212 1211 1212 1213 1213 1213 1213 1213 1213 1214 1214 1214 1213 1213 1215 1216 1217 1215 1214 1213 1214 1215 1214 1213 1213 1213 1213 1213 1213 1214 1213 1214 1213 1213 1212 1213 1215 1215 1215 1214 1215 1214 1214 1213 1213 1213 1214 1214 1214 1214 1214 1213 1213 1214 1213 1213 1213 1214 1213 1212 1212 1212 1212 1212 1212 1213 1211 1213 1212 1213 1213 1212 1212 1212 1213 1214 1213 1213 1212 1212 1213 1214 1215 1216 1216 1214 1214 1214 1214 1213 1211 1210 1211 1211 1211 1211 1210 1210 1209 1209 1210 1211 1211 1211 1211 1210 1209 1208 1208 1210 1219 0 0 1679 1697 1729 1731 1722 1706 1703 1703 1735 1759 1751 1717 1710 1736 0 0 0 0 0 0 0 1192 1184 0 1107 0 0 0 1761 1762 1756 1764 1755 1762 1755 1742 1726 1752 1748 1730 1722 1727 1755 1758 1753 1751 1736 1727 1732 1729 1731 1732 1729 1741 1774 1755 1725 1716 1780 1777 1776 1709 1710 1717 1786 1800 1779 0 1738 1709 0 0 1752 1707 1748 1737 1697 1725 1841 0 1776 1773 1804 1766 0 0 0 1751 0 1755 0 0 0 0 0 0 0 0 0 0 0 0 0 0 0 0 0 1770 1812 0 0 1669 0
    0 952 0 1033 1099 0 0 1106 0 0 0 0 1104 1081 0 0 1077 1044 0 0 0 0 0 0 0 0 994 0 0 0 0 0 0 0 0 0 0 0 0 0 0 0 0 0 0 0 0 0 0 0 0 0 0 0 0 0 0 0 1711 1721 1763 0 0 0 0 0 1681 1727 1731 1769 1783 1786 0 0 0 0 0 1725 1735 0 0 1753 0 0 1722 0 0 1691 1716 1719 1734 1726 1713 1718 1740 1740 1739 1736 1743 1696 1719 1710 1715 1717 1717 1727 1723 1711 1702 1704 1728 1714 1711 0 0 0 0 1218 1234 1242 1243 1244 1227 1215 1211 1208 1206 1196 1173 1148 1146 1148 1156 0 0 0 0 0 1683 0 0 1178 1204 1200 1201 1202 1204 1206 1208 1208 1208 1208 1208 1208 1208 1209 1209 1209 1209 1207 1208 1208 1211 1208 1207 1207 1210 1209 1209 1209 1210 1210 1209 1208 1208 1208 1210 1211 1212 1213 1213 1216 1220 1223 1220 1216 1212 1210 1210 1210 1210 1210 1210 1210 1213 1213 1212 1211 1212 1213 1213 1211 1212 1212 1212 1210 1211 1211 1213 1213 1213 1211 1212 1212 1212 1212 1213 1211 1212 1211 1213 1213 1215 1215 1214 1212 1212 1213 1212 1212 1212 1213 1213 1215 1215 1217 1214 1213 1214 1213 1214 1211 1213 1213 1215 1214 1215 1214 1214 1213 1213 1213 1214 1214 1214 1215 1216 1216 1215 1215 1214 1213 1214 1214 1213 1212 1213 1214 1215 1215 1214 1213 1214 1214 1215 1215 1215 1214 1214 1214 1215 1215 1215 1212 1212 1212 1214 1213 1214 1213 1214 1214 1216 1215 1214 1215 1215 1215 1214 1214 1216 1216 1218 1216 1215 1216 1216 1216 1215 1214 1214 1214 1215 1215 1215 1215 1215 1214 1214 1213 1214 1214 1217 1217 1216 1214 1216 1216 1216 1214 1214 1213 1214 1213 1214 1214 1215 1215 1216 1216 1216 1215 1214 1215 1214 1213 1213 1213 1213 1213 1213 1214 1214 1215 1215 1215 1215 1214 1214 1214 1214 1215 1215 1214 1213 1211 1212 1213 1215 1216 1216 1215 1214 1214 1213 1213 1212 1211 1212 1212 1212 1212 1211 1211 1211 1210 1211 1210 1212 1211 1210 1208 1209 1210 1210 1211 1219 0 0 1653 1710 1713 1728 1727 1721 1720 1724 1729 1753 1743 1727 1725 1741 1751 0 0 0 1703 1722 0 0 1140 0 0 0 0 1747 1756 1757 1765 1752 1758 1765 1763 1753 1751 1738 1727 1711 1730 1730 1736 1747 1747 1759 1755 1731 1710 1742 1717 1709 1719 1769 1783 1761 1738 1751 1778 1769 1727 1730 1749 1751 1738 1763 0 1791 1760 1706 0 1678 1761 0 0 0 1712 0 0 1833 1793 1768 0 0 1756 1737 0 0 1751 0 0 1777 1792 0 0 0 0 1787 0 0 0 0 0 0 0 0 0 0 0 0 0 873 0
    0 0 0 0 0 0 1143 1096 0 0 0 0 0 968 0 1024 1089 0 0 0 0 0 0 0 0 0 0 0 0 0 0 0 0 0 0 0 1070 0 0 0 0 0 0 1738 0 0 0 1721 1744 0 0 0 0 0 0 0 0 0 1688 1710 1759 0 1815 0 1776 1703 1749 0 0 1740 1747 1745 1748 0 0 1687 1680 1728 1729 1711 1739 1720 0 1749 0 0 1698 1704 1711 1729 1715 1708 1708 1731 1748 1756 1714 1705 1698 1713 1713 1724 1710 1703 1707 1714 1722 1718 1694 1719 1712 1715 1701 0 0 0 0 0 1212 1235 1237 1244 1234 1222 1213 1211 1211 1207 1184 1159 1150 1150 1159 0 0 0 0 0 0 0 0 1190 1202 1200 1201 1203 1206 1208 1208 1207 1205 1206 1207 1208 1208 1208 1208 1208 1209 1208 1208 1209 1211 1209 1208 1208 1210 1210 1210 1208 1208 1209 1209 1209 1209 1210 1209 1210 1212 1217 1220 1225 1226 1223 1216 1214 1211 1211 1210 1211 1210 1210 1210 1211 1213 1213 1212 1211 1212 1212 1212 1211 1211 1212 1211 1211 1211 1212 1212 1213 1212 1212 1212 1212 1212 1212 1211 1211 1211 1212 1213 1213 1214 1214 1214 1215 1213 1214 1212 1213 1213 1215 1214 1215 1215 1216 1214 1214 1215 1214 1213 1212 1213 1213 1214 1215 1215 1214 1213 1213 1211 1213 1213 1213 1212 1213 1214 1214 1213 1214 1213 1214 1215 1216 1214 1213 1212 1213 1214 1214 1214 1213 1214 1214 1215 1215 1214 1214 1214 1215 1215 1215 1214 1213 1212 1213 1214 1214 1214 1213 1215 1215 1217 1216 1215 1215 1216 1215 1214 1214 1215 1215 1216 1215 1214 1215 1215 1217 1216 1216 1215 1216 1215 1214 1214 1216 1216 1215 1214 1214 1214 1214 1217 1218 1217 1215 1216 1216 1216 1215 1214 1213 1213 1213 1213 1213 1214 1216 1218 1219 1217 1216 1215 1216 1215 1213 1213 1214 1215 1215 1215 1215 1214 1215 1215 1215 1214 1213 1212 1212 1213 1214 1214 1214 1213 1211 1211 1212 1214 1214 1214 1214 1214 1213 1213 1213 1213 1213 1212 1212 1212 1212 1212 1212 1212 1213 1211 1211 1210 1211 1210 1210 1209 1208 1207 1210 1218 0 0 1670 1686 1726 1720 1722 1738 1735 1729 1733 1725 1734 1736 1742 1743 1741 1749 1775 1767 1737 1723 1724 1720 0 0 0 1712 1728 1737 1744 1737 1738 1744 1748 1755 1755 1751 1750 1735 1725 1737 1745 1742 1731 1717 1738 1718 1749 1741 1711 1750 1738 1709 1751 1772 1767 1759 1755 1784 1763 1780 1741 1771 1795 1768 1752 0 1776 1766 1789 0 1685 1668 1741 0 1766 1832 1739 1723 0 1800 0 0 1721 0 1735 1755 1698 1755 1781 0 1780 1772 0 0 0 0 1756 0 1716 0 0 0 0 0 0 0 0 0 0 0 0 0 0
    0 0 0 0 0 0 1097 1040 0 0 1077 0 0 0 0 1011 1019 0 0 0 0 0 1723 0 0 0 0 1759 0 0 0 0 0 0 0 959 985 1079 0 0 0 0 1682 1721 1751 1704 1692 1737 1750 0 0 0 0 0 0 1726 1697 0 1676 1661 1759 1784 1765 0 1757 1762 1708 1719 1696 1730 1719 1713 1751 1764 1734 1694 1709 1738 1730 1724 1726 1739 1721 1743 1745 1731 1735 1708 1710 1736 1725 1714 1721 1739 1747 1723 1697 1694 1712 1731 1734 1731 1718 1709 1690 1703 1713 1711 1699 1704 1728 1731 1735 1725 0 0 0 0 0 1194 1224 1230 1235 1224 1217 1213 1213 1207 1207 1196 1171 1167 1182 0 0 0 0 0 0 0 0 1223 1208 1202 1201 1203 1205 1209 1209 1208 1206 1206 1207 1208 1208 1207 1208 1208 1210 1209 1209 1209 1211 1210 1209 1208 1210 1210 1211 1208 1208 1208 1210 1210 1210 1210 1210 1211 1215 1221 1229 1231 1225 1215 1212 1212 1211 1211 1211 1211 1212 1211 1212 1212 1213 1213 1213 1212 1212 1212 1212 1212 1213 1212 1211 1211 1213 1214 1214 1214 1213 1212 1212 1213 1214 1214 1212 1211 1212 1213 1214 1214 1214 1213 1212 1215 1215 1215 1213 1213 1214 1215 1215 1215 1214 1214 1213 1214 1215 1214 1213 1213 1214 1214 1215 1215 1216 1215 1214 1214 1212 1213 1213 1214 1214 1214 1215 1214 1215 1215 1215 1214 1214 1214 1213 1213 1213 1214 1214 1214 1214 1214 1216 1217 1217 1215 1214 1215 1215 1217 1216 1214 1213 1212 1214 1214 1215 1215 1216 1215 1216 1215 1216 1216 1216 1216 1216 1215 1215 1215 1216 1216 1216 1215 1215 1214 1215 1217 1217 1216 1216 1216 1217 1215 1214 1215 1216 1215 1214 1214 1215 1215 1217 1218 1216 1214 1215 1216 1216 1215 1215 1213 1214 1214 1215 1214 1215 1217 1219 1218 1217 1217 1216 1216 1215 1214 1214 1214 1215 1214 1215 1215 1214 1214 1215 1216 1215 1214 1213 1213 1213 1214 1215 1214 1214 1213 1213 1213 1214 1214 1214 1214 1214 1213 1213 1213 1214 1213 1212 1211 1213 1213 1213 1213 1214 1214 1212 1211 1210 1210 1211 1210 1209 1207 1206 1208 1218 0 0 1675 1710 1711 1710 1712 1724 1728 1729 1729 1727 1738 1745 1746 1732 1744 1763 1764 1758 1729 1738 1730 1731 1735 1738 1716 1721 1736 1736 1720 1711 1736 1751 1749 1742 1748 1747 1737 1757 1752 1744 1761 1760 1726 1712 1705 1726 1716 1734 1747 1750 1773 1746 1747 1750 1729 1738 1772 1770 0 0 1764 1777 1768 1790 1769 1760 1757 1754 0 0 0 0 1744 1770 1793 0 1781 1766 1826 0 0 1746 1762 0 0 0 1707 0 1783 1787 1781 1812 0 0 0 1769 1752 1683 0 0 0 0 0 0 0 0 1737 0 0 0 0 0 0
    0 0 0 0 0 0 0 0 0 0 0 1138 0 0 0 0 0 0 0 0 1818 1788 0 0 0 0 0 0 0 0 0 0 0 0 0 0 0 0 1057 0 0 0 1709 0 1772 1733 0 0 1696 1695 1714 1730 0 0 0 1702 1724 0 1650 1693 0 1751 1777 0 1719 1717 1688 1697 0 1686 1727 0 1757 1769 1735 1712 1723 1736 1737 1750 1754 1741 1723 1712 1725 1771 1756 1724 1716 1726 1732 1716 1726 1733 1728 1719 1704 1712 1727 1746 1742 1736 1736 1711 1701 1696 1719 1720 1707 1719 1730 1739 1729 1737 1713 0 0 0 0 1157 1174 1203 1214 1224 1217 1216 1212 1217 1216 1225 0 1208 1224 0 0 0 0 0 0 0 1235 1224 1206 1205 1203 1204 1204 1208 1208 1209 1207 1207 1207 1208 1208 1208 1208 1209 1210 1210 1209 1208 1208 1209 1209 1208 1209 1209 1209 1208 1208 1209 1211 1212 1211 1210 1209 1213 1219 1228 1233 1226 1215 1211 1210 1211 1210 1211 1210 1211 1211 1211 1211 1212 1212 1212 1212 1212 1211 1211 1212 1214 1213 1213 1212 1213 1213 1214 1213 1214 1213 1213 1212 1214 1213 1213 1212 1212 1212 1213 1213 1214 1213 1213 1212 1215 1216 1217 1214 1214 1214 1215 1215 1215 1214 1213 1213 1214 1215 1216 1214 1215 1214 1214 1213 1214 1214 1214 1214 1214 1214 1214 1214 1214 1214 1215 1214 1214 1213 1213 1214 1215 1214 1213 1211 1212 1211 1212 1212 1213 1213 1214 1215 1216 1215 1214 1213 1214 1215 1216 1215 1213 1212 1213 1214 1214 1213 1214 1215 1216 1216 1215 1214 1214 1215 1216 1216 1215 1215 1215 1216 1216 1216 1216 1215 1214 1214 1215 1216 1216 1215 1215 1215 1215 1214 1216 1217 1216 1215 1214 1215 1215 1216 1217 1215 1215 1214 1216 1217 1217 1215 1214 1215 1215 1216 1215 1215 1216 1217 1217 1216 1216 1215 1216 1215 1215 1215 1215 1216 1216 1215 1215 1214 1214 1215 1216 1215 1214 1213 1213 1214 1215 1215 1214 1215 1215 1215 1215 1214 1213 1212 1213 1214 1214 1214 1214 1214 1213 1212 1212 1211 1212 1213 1213 1212 1213 1212 1213 1211 1211 1211 1211 1210 1207 1205 1208 1215 0 0 0 1719 1714 1708 1697 1705 1716 1722 1722 1725 1735 1739 1735 1738 1731 1743 1757 1749 1726 1729 1737 1726 1739 1742 1736 1730 1750 1744 1718 1726 1753 1759 1749 1743 1741 1741 1732 1721 1716 1723 1761 1751 1723 1712 1716 1724 1735 1736 1758 1755 1741 1741 1744 1731 1718 1710 1717 1754 1737 0 1760 1757 1745 1741 1769 1754 1737 0 1747 1707 1721 1752 0 1770 1760 0 1807 1784 1782 1831 0 0 0 0 1713 1711 1716 0 1787 1783 1799 1715 1729 0 0 0 0 1723 1719 0 0 1752 0 1700 0 1699 0 1743 0 0 0 0 0
    0 0 0 0 0 0 0 0 0 1028 0 0 0 0 0 987 0 0 0 0 0 0 0 0 0 0 0 0 0 0 0 0 0 0 0 0 0 0 0 0 0 0 0 0 1731 0 0 0 0 1716 0 0 1722 0 1700 0 0 1794 0 0 0 0 0 0 0 1701 0 0 1734 1712 1749 1754 1760 1710 1691 1713 1732 1741 1754 1761 1757 1741 1719 1701 1721 1727 1752 1750 1741 1702 1721 1728 1728 1719 1714 1722 1726 1727 1742 1735 1727 1732 1735 1715 1694 1694 1711 1729 1725 1719 1733 1724 1726 1724 1724 0 0 0 0 0 1161 1213 1198 1210 1214 1212 1211 1215 1227 1237 0 0 0 0 0 0 0 0 0 0 0 1223 1207 1205 1204 1203 1204 1205 1208 1210 1209 1208 1207 1208 1208 1208 1209 1209 1210 1210 1210 1208 1209 1209 1210 1210 1210 1209 1208 1207 1208 1210 1211 1211 1210 1209 1209 1213 1220 1227 1225 1216 1211 1210 1210 1211 1211 1211 1212 1212 1212 1212 1213 1213 1213 1213 1214 1214 1213 1213 1213 1214 1213 1213 1213 1213 1213 1214 1214 1215 1214 1214 1213 1213 1212 1211 1212 1213 1213 1213 1213 1213 1214 1214 1214 1214 1215 1216 1216 1216 1216 1215 1215 1215 1214 1212 1212 1213 1215 1216 1216 1215 1215 1215 1214 1214 1214 1214 1215 1215 1216 1216 1215 1214 1215 1215 1216 1215 1215 1213 1214 1214 1214 1212 1211 1211 1211 1213 1213 1213 1214 1214 1216 1216 1216 1214 1214 1214 1215 1215 1216 1215 1215 1214 1214 1213 1213 1215 1217 1216 1216 1214 1214 1213 1215 1216 1215 1215 1216 1216 1216 1216 1217 1216 1215 1214 1215 1214 1215 1214 1214 1215 1216 1216 1215 1216 1216 1215 1215 1213 1215 1214 1216 1215 1216 1215 1215 1216 1217 1216 1216 1214 1215 1215 1217 1217 1217 1216 1216 1216 1216 1217 1217 1217 1216 1216 1216 1216 1216 1215 1215 1214 1215 1215 1215 1216 1215 1214 1214 1215 1215 1215 1216 1216 1217 1215 1216 1215 1215 1213 1213 1213 1214 1215 1215 1214 1213 1212 1213 1212 1212 1212 1213 1213 1213 1212 1213 1212 1212 1210 1210 1210 1210 1209 1208 1209 1215 0 0 1683 1712 1709 1701 1703 1706 1714 1724 1727 1732 1729 1733 1734 1732 1727 1726 1750 1749 1731 1739 1734 1735 1732 1743 1737 1745 1753 1748 1742 1735 1753 1748 1742 1739 1744 1742 1735 1729 1707 1715 1729 1774 1740 1729 1735 1749 1756 1755 1741 1747 1741 1737 1764 1745 1701 0 1700 1736 1728 1738 1750 1748 1738 1756 1761 0 0 1752 1732 1733 1719 1732 1791 1761 1782 0 1770 1767 1754 1761 0 0 0 1779 1784 1737 1731 0 1802 0 0 0 1712 0 0 0 1754 1742 1751 1761 1764 1772 0 0 0 1757 1747 0 1818 0 0 0 0</data></EmptySandboxInsideBox>
</opencv_storage>
